NCOLS 420
NROWS 32
XLLCORNER 356746.149815
YLLCORNER 2172567.91622
CELLSIZE 50 
NODATA_value -3.4e+38 
-3.4e+38 -3.4e+38 -3.4e+38 -3.4e+38 -3.4e+38 -3.4e+38 -3.4e+38 -3.4e+38 -3.4e+38 -3.4e+38 -3.4e+38 -3.4e+38 -3.4e+38 -3.4e+38 -3.4e+38 -3.4e+38 -3.4e+38 -3.4e+38 -3.4e+38 -3.4e+38 -3.4e+38 -3.4e+38 -3.4e+38 -3.4e+38 -3.4e+38 -3.4e+38 -3.4e+38 -3.4e+38 -3.4e+38 -3.4e+38 -3.4e+38 -3.4e+38 -3.4e+38 -3.4e+38 -3.4e+38 -3.4e+38 -3.4e+38 -3.4e+38 -3.4e+38 -3.4e+38 -3.4e+38 -3.4e+38 -3.4e+38 -3.4e+38 -3.4e+38 -3.4e+38 -3.4e+38 -3.4e+38 -3.4e+38 -3.4e+38 -3.4e+38 -3.4e+38 -3.4e+38 2460 2449 2434 2417 2420 2422 2419 2424 2430 2434 2443 2457 2461 2459 2456 2453 2452 2460 2460 2460 2479 2480 2480 2483 2483 2485 2491 2500 2522 2530 2539 2541 2549 2554 2554 2552 2547 2543 2537 2547 2559 2566 2575 2579 2580 2600 2618 2645 2647 2647 2649 2643 2643 2654 2659 2673 2679 2675 2668 2684 2697 2715 2748 2757 2759 2749 2751 2761 2792 2808 2823 2819 2816 2810 2811 2814 2818 2831 2838 2879 2901 2912 2919 2940 2957 2981 3010 3020 3041 3084 3104 3127 3140 3171 3175 3158 3115 3081 3061 3034 3015 3009 3008 3008 3007 2986 2960 2967 2992 3013 3029 3080 3109 3110 3101 3101 3113 3149 3202 3221 3239 3216 3197 3166 3156 3162 3190 3219 3217 3212 3225 3245 3258 3258 3242 3226 3219 3219 3214 3209 3200 3199 3198 3197 3188 3185 3180 3162 3158 3155 3153 3153 3151 3153 3155 3155 3154 3154 3159 3164 3166 3173 3176 3178 3183 3197.5556640625 3206 3224 3230 3239 3240 3236 3216 3205 3208 3220 3233 3239 3243 3245 3246 3240 3234 3239 3259 3264 3257 3237 3242 3248 3264 3279 3284 3293 3296 3295 3289 3279 3273 3267 3262 3263 3265 3266 3268 3265 3262 3259 3258 3257 3258 3258 3257 3255 3250 3242 3231 3215 3209 3201 3193 3188 3186 3187 3186 3187 3187 3186 3178 3163 3154 3141 3128 3123 3110 3093 3084 3068 3058 3055 3041 3034 3027 3021 3018 3014 3013 3011 3001 2999 2998 2990 2985 2982 2980 2975 2974 2970 2968 2966 2962 2961 2960 2959 2957 2955 2955 2953 -3.4e+38 -3.4e+38 -3.4e+38 -3.4e+38 -3.4e+38 -3.4e+38 -3.4e+38 -3.4e+38 -3.4e+38 -3.4e+38 -3.4e+38 -3.4e+38 -3.4e+38 -3.4e+38 -3.4e+38 -3.4e+38 -3.4e+38 -3.4e+38 -3.4e+38 -3.4e+38 -3.4e+38 -3.4e+38 -3.4e+38 -3.4e+38 -3.4e+38 -3.4e+38 -3.4e+38 -3.4e+38 -3.4e+38 -3.4e+38 -3.4e+38 -3.4e+38 -3.4e+38 -3.4e+38 -3.4e+38 -3.4e+38 -3.4e+38 -3.4e+38 -3.4e+38 -3.4e+38 -3.4e+38 -3.4e+38 -3.4e+38 -3.4e+38 -3.4e+38 -3.4e+38 -3.4e+38 -3.4e+38 -3.4e+38 -3.4e+38 -3.4e+38 -3.4e+38 -3.4e+38 -3.4e+38 -3.4e+38 -3.4e+38 -3.4e+38 -3.4e+38 -3.4e+38 -3.4e+38 -3.4e+38 -3.4e+38 -3.4e+38 -3.4e+38 -3.4e+38 -3.4e+38 -3.4e+38 -3.4e+38 -3.4e+38 -3.4e+38 -3.4e+38 -3.4e+38 -3.4e+38 -3.4e+38 -3.4e+38 -3.4e+38 -3.4e+38 -3.4e+38 -3.4e+38 -3.4e+38 -3.4e+38 -3.4e+38 -3.4e+38 -3.4e+38 -3.4e+38 -3.4e+38 -3.4e+38 -3.4e+38 -3.4e+38 -3.4e+38 -3.4e+38 -3.4e+38 -3.4e+38 -3.4e+38 -3.4e+38 -3.4e+38 -3.4e+38 -3.4e+38 -3.4e+38
-3.4e+38 -3.4e+38 -3.4e+38 -3.4e+38 -3.4e+38 -3.4e+38 -3.4e+38 -3.4e+38 -3.4e+38 -3.4e+38 -3.4e+38 -3.4e+38 -3.4e+38 -3.4e+38 -3.4e+38 -3.4e+38 -3.4e+38 -3.4e+38 -3.4e+38 -3.4e+38 -3.4e+38 -3.4e+38 -3.4e+38 -3.4e+38 -3.4e+38 -3.4e+38 -3.4e+38 -3.4e+38 -3.4e+38 -3.4e+38 -3.4e+38 -3.4e+38 -3.4e+38 -3.4e+38 -3.4e+38 -3.4e+38 -3.4e+38 -3.4e+38 -3.4e+38 -3.4e+38 -3.4e+38 -3.4e+38 -3.4e+38 -3.4e+38 -3.4e+38 -3.4e+38 -3.4e+38 -3.4e+38 -3.4e+38 -3.4e+38 -3.4e+38 -3.4e+38 -3.4e+38 2430 2435 2425 2412 2411 2412 2412 2414 2416 2428 2449 2454 2458 2454 2451 2449 2450 2454 2460 2464 2475 2476 2476 2479 2481 2482 2491 2507 2524 2534 2540 2542 2547 2547 2545 2539 2533 2530 2538 2548 2556 2557 2560 2565 2574 2594 2604 2616 2617 2611 2618 2625 2631 2629 2630 2637 2641 2640 2652 2685 2692 2713 2738 2736 2721 2728 2740 2770 2797 2801 2791 2780 2780 2790 2804 2818 2835 2839 2845 2888 2903 2913 2921 2934 2947 2969 2991 3008 3038 3073 3094 3124 3141 3167 3153 3134 3081 3053 3035 3001 2985 2984 2997 2997 2994 2968 2955 2965 2992 3014 3030 3071 3079 3074 3069 3087 3107 3149 3193 3204 3205 3186 3172 3146 3138 3149 3174 3193 3190 3191 3215 3238 3251 3253 3247 3233 3225 3216 3204 3201 3201 3201 3200 3193 3183 3181 3176 3161 3158 3156 3158 3157 3157 3172 3180 3189 3187 3183 3171 3177 3177 3178 3180 3180 3196 3217 3224.42114257812 3244 3252 3260 3257 3249 3225 3210 3212 3222 3234 3240 3255 3267 3268 3249 3242 3246 3262 3265 3262 3254 3253 3257 3267 3277 3284 3293 3295 3294 3290 3280 3279 3277 3276 3278 3282 3282 3278 3271 3267 3261 3259 3259 3259 3257 3256 3253 3241 3238 3229 3220 3217 3214 3210 3209 3209 3212 3211 3209 3206 3202 3193 3177 3175 3169 3158 3148 3136 3122 3115 3095 3071 3060 3040 3039 3027 3020 3018 3019 3017 3015 3007 2999 2995 2986 2983 2981 2978 2975 2973 2970 2967 2965 2962 2961 2961 2960 2957 2955 2953 2952 2951 2950 -3.4e+38 -3.4e+38 -3.4e+38 -3.4e+38 -3.4e+38 -3.4e+38 -3.4e+38 -3.4e+38 -3.4e+38 -3.4e+38 -3.4e+38 -3.4e+38 -3.4e+38 -3.4e+38 -3.4e+38 -3.4e+38 -3.4e+38 -3.4e+38 -3.4e+38 -3.4e+38 -3.4e+38 -3.4e+38 -3.4e+38 -3.4e+38 -3.4e+38 -3.4e+38 -3.4e+38 -3.4e+38 -3.4e+38 -3.4e+38 -3.4e+38 -3.4e+38 -3.4e+38 -3.4e+38 -3.4e+38 -3.4e+38 -3.4e+38 -3.4e+38 -3.4e+38 -3.4e+38 -3.4e+38 -3.4e+38 -3.4e+38 -3.4e+38 -3.4e+38 -3.4e+38 -3.4e+38 -3.4e+38 -3.4e+38 -3.4e+38 -3.4e+38 -3.4e+38 -3.4e+38 -3.4e+38 -3.4e+38 -3.4e+38 -3.4e+38 -3.4e+38 -3.4e+38 -3.4e+38 -3.4e+38 -3.4e+38 -3.4e+38 -3.4e+38 -3.4e+38 -3.4e+38 -3.4e+38 -3.4e+38 -3.4e+38 -3.4e+38 -3.4e+38 -3.4e+38 -3.4e+38 -3.4e+38 -3.4e+38 -3.4e+38 -3.4e+38 -3.4e+38 -3.4e+38 -3.4e+38 -3.4e+38 -3.4e+38 -3.4e+38 -3.4e+38 -3.4e+38 -3.4e+38 -3.4e+38 -3.4e+38 -3.4e+38 -3.4e+38 -3.4e+38 -3.4e+38 -3.4e+38 -3.4e+38 -3.4e+38 -3.4e+38 -3.4e+38
-3.4e+38 -3.4e+38 -3.4e+38 -3.4e+38 -3.4e+38 -3.4e+38 -3.4e+38 -3.4e+38 -3.4e+38 -3.4e+38 -3.4e+38 -3.4e+38 -3.4e+38 -3.4e+38 -3.4e+38 -3.4e+38 -3.4e+38 -3.4e+38 -3.4e+38 -3.4e+38 -3.4e+38 -3.4e+38 -3.4e+38 -3.4e+38 -3.4e+38 -3.4e+38 -3.4e+38 -3.4e+38 -3.4e+38 -3.4e+38 -3.4e+38 -3.4e+38 -3.4e+38 -3.4e+38 -3.4e+38 -3.4e+38 -3.4e+38 -3.4e+38 -3.4e+38 -3.4e+38 -3.4e+38 -3.4e+38 -3.4e+38 -3.4e+38 -3.4e+38 -3.4e+38 -3.4e+38 -3.4e+38 -3.4e+38 -3.4e+38 -3.4e+38 -3.4e+38 -3.4e+38 2430 2423 2417 2407 2408 2409 2409 2412 2417 2432 2447 2450 2452 2449 2447 2446 2450 2458 2461 2464 2471 2471 2471 2475 2480 2482 2491 2507 2514 2529 2539 2541 2544 2543 2539 2531 2525 2527 2539 2546 2550 2553 2558 2562 2573 2588 2594 2600 2606 2617 2619 2618 2619 2615 2615 2621 2633 2639 2661 2696 2701 2710 2722 2721 2713 2719 2731 2764 2782 2782 2768 2772 2779 2803 2822 2836 2851 2849 2851 2888 2899 2906 2920 2934 2945 2964 2985 2999 3031 3062 3082 3112 3129 3159 3144 3124 3066 3039 3025 2995 2980 2978 2984 2987 2984 2958 2950 2963 2987 3013 3029 3060 3059 3055 3059 3085 3108 3151 3187 3193 3187 3169 3158 3139 3125 3141 3161 3173 3174 3195 3210 3235 3249 3252 3248 3239 3232 3222 3207 3199 3199 3199 3197 3187 3180 3179 3174 3161 3158 3160 3161 3160 3164 3185 3194 3205 3202 3195 3177 3182 3177 3179 3182 3184 3204 3226 3235 3257 3264 3271 3264 3255 3226 3212 3214 3222 3236 3244 3262 3276 3276 3255 3249 3251 3262 3265 3263 3260 3259 3261 3272 3283 3290 3297 3297 3297 3296 3286 3283 3280 3279 3280 3283 3283 3279 3273 3270 3263 3260 3259 3259 3258 3257 3255 3244 3240 3235 3232 3230 3229 3222 3221 3220 3222 3221 3217 3210 3205 3197 3186 3184 3178 3164 3155 3142 3136 3128 3106 3071 3058 3043 3041 3032 3022 3018 3019 3020 3019 3006 3001 2997 2988 2982 2981 2980 2977 2975 2971 2968 2966 2963 2961 2961 2960 2956 2954 2953 2952 2953 2952 -3.4e+38 -3.4e+38 -3.4e+38 -3.4e+38 -3.4e+38 -3.4e+38 -3.4e+38 -3.4e+38 -3.4e+38 -3.4e+38 -3.4e+38 -3.4e+38 -3.4e+38 -3.4e+38 -3.4e+38 -3.4e+38 -3.4e+38 -3.4e+38 -3.4e+38 -3.4e+38 -3.4e+38 -3.4e+38 -3.4e+38 -3.4e+38 -3.4e+38 -3.4e+38 -3.4e+38 -3.4e+38 -3.4e+38 -3.4e+38 -3.4e+38 -3.4e+38 -3.4e+38 -3.4e+38 -3.4e+38 -3.4e+38 -3.4e+38 -3.4e+38 -3.4e+38 -3.4e+38 -3.4e+38 -3.4e+38 -3.4e+38 -3.4e+38 -3.4e+38 -3.4e+38 -3.4e+38 -3.4e+38 -3.4e+38 -3.4e+38 -3.4e+38 -3.4e+38 -3.4e+38 -3.4e+38 -3.4e+38 -3.4e+38 -3.4e+38 -3.4e+38 -3.4e+38 -3.4e+38 -3.4e+38 -3.4e+38 -3.4e+38 -3.4e+38 -3.4e+38 -3.4e+38 -3.4e+38 -3.4e+38 -3.4e+38 -3.4e+38 -3.4e+38 -3.4e+38 -3.4e+38 -3.4e+38 -3.4e+38 -3.4e+38 -3.4e+38 -3.4e+38 -3.4e+38 -3.4e+38 -3.4e+38 -3.4e+38 -3.4e+38 -3.4e+38 -3.4e+38 -3.4e+38 -3.4e+38 -3.4e+38 -3.4e+38 -3.4e+38 -3.4e+38 -3.4e+38 -3.4e+38 -3.4e+38 -3.4e+38 -3.4e+38 -3.4e+38
-3.4e+38 -3.4e+38 -3.4e+38 -3.4e+38 -3.4e+38 -3.4e+38 -3.4e+38 -3.4e+38 -3.4e+38 -3.4e+38 -3.4e+38 -3.4e+38 -3.4e+38 -3.4e+38 -3.4e+38 -3.4e+38 -3.4e+38 -3.4e+38 -3.4e+38 -3.4e+38 -3.4e+38 -3.4e+38 -3.4e+38 -3.4e+38 -3.4e+38 -3.4e+38 -3.4e+38 -3.4e+38 -3.4e+38 -3.4e+38 -3.4e+38 -3.4e+38 -3.4e+38 -3.4e+38 -3.4e+38 -3.4e+38 -3.4e+38 -3.4e+38 -3.4e+38 -3.4e+38 -3.4e+38 -3.4e+38 -3.4e+38 -3.4e+38 -3.4e+38 -3.4e+38 -3.4e+38 -3.4e+38 -3.4e+38 -3.4e+38 -3.4e+38 -3.4e+38 -3.4e+38 2407 2403 2400 2400 2403 2404 2406 2417 2428 2445 2443 2442 2439 2439 2439 2446 2452 2460 2460 2461 2464 2464 2465 2475 2484 2489 2494 2496 2499 2514 2528 2531 2533 2528 2524 2519 2523 2531 2538 2538 2541 2551 2562 2569 2579 2580 2581 2591 2611 2616 2603 2597 2599 2604 2606 2616 2624 2635 2649 2667 2672 2693 2708 2715 2699 2702 2710 2735 2746 2756 2776 2796 2808 2827 2850 2853 2866 2859 2860 2880 2893 2901 2920 2934 2945 2965 2986 2995 3020 3045 3057 3094 3115 3142 3121 3101 3049 3019 3005 2989 2973 2967 2960 2957 2955 2935 2938 2955 2980 3013 3027 3038 3029 3035 3059 3096 3117 3144 3160 3157 3148 3141 3137 3126 3112 3121 3138 3143 3149 3183 3199 3228 3247 3251 3252 3245 3240 3231 3215 3205 3198 3190 3187 3181 3176 3175 3168 3162 3163 3166 3168 3168 3176 3197 3207 3223 3214 3203 3179 3186 3188 3186 3189 3204 3224 3249 3260 3273.10522460938 3280.68432617188 3286 3273 3265 3237 3218 3217 3224 3240 3249 3274 3286 3283 3269 3262 3262 3266 3271 3271 3272 3275 3279 3286 3299 3304 3309 3311 3312 3311 3299 3295 3288 3285 3284 3284 3283 3280 3276 3274 3268 3264 3263 3261 3260 3260 3260 3257 3254 3250 3251 3252 3252 3250 3249 3245 3244 3243 3235 3218 3214 3208 3203 3200 3184 3159 3149 3134 3128 3126 3114 3081 3066 3053 3043 3038 3030 3028 3026 3024 3022 3010 3001 2998 2991 2985 2983 2980 2979 2977 2972 2968 2966 2963 2964 2965 2967 2974 2979 2972 2969 2971 2971 2965 2964 -3.4e+38 -3.4e+38 -3.4e+38 -3.4e+38 -3.4e+38 -3.4e+38 -3.4e+38 -3.4e+38 -3.4e+38 -3.4e+38 -3.4e+38 -3.4e+38 -3.4e+38 -3.4e+38 -3.4e+38 -3.4e+38 -3.4e+38 -3.4e+38 -3.4e+38 -3.4e+38 -3.4e+38 -3.4e+38 -3.4e+38 -3.4e+38 -3.4e+38 -3.4e+38 -3.4e+38 -3.4e+38 -3.4e+38 -3.4e+38 -3.4e+38 -3.4e+38 -3.4e+38 -3.4e+38 -3.4e+38 -3.4e+38 -3.4e+38 -3.4e+38 -3.4e+38 -3.4e+38 -3.4e+38 -3.4e+38 -3.4e+38 -3.4e+38 -3.4e+38 -3.4e+38 -3.4e+38 -3.4e+38 -3.4e+38 -3.4e+38 -3.4e+38 -3.4e+38 -3.4e+38 -3.4e+38 -3.4e+38 -3.4e+38 -3.4e+38 -3.4e+38 -3.4e+38 -3.4e+38 -3.4e+38 -3.4e+38 -3.4e+38 -3.4e+38 -3.4e+38 -3.4e+38 -3.4e+38 -3.4e+38 -3.4e+38 -3.4e+38 -3.4e+38 -3.4e+38 -3.4e+38 -3.4e+38 -3.4e+38 -3.4e+38 -3.4e+38 -3.4e+38 -3.4e+38 -3.4e+38 -3.4e+38 -3.4e+38 -3.4e+38 -3.4e+38 -3.4e+38 -3.4e+38 -3.4e+38 -3.4e+38 -3.4e+38 -3.4e+38 -3.4e+38 -3.4e+38 -3.4e+38 -3.4e+38 -3.4e+38
-3.4e+38 -3.4e+38 -3.4e+38 -3.4e+38 -3.4e+38 -3.4e+38 -3.4e+38 -3.4e+38 -3.4e+38 -3.4e+38 -3.4e+38 -3.4e+38 -3.4e+38 -3.4e+38 -3.4e+38 -3.4e+38 -3.4e+38 -3.4e+38 -3.4e+38 -3.4e+38 -3.4e+38 -3.4e+38 -3.4e+38 -3.4e+38 -3.4e+38 -3.4e+38 -3.4e+38 -3.4e+38 -3.4e+38 -3.4e+38 -3.4e+38 -3.4e+38 -3.4e+38 -3.4e+38 -3.4e+38 -3.4e+38 -3.4e+38 -3.4e+38 -3.4e+38 -3.4e+38 -3.4e+38 -3.4e+38 -3.4e+38 -3.4e+38 -3.4e+38 -3.4e+38 -3.4e+38 -3.4e+38 -3.4e+38 -3.4e+38 -3.4e+38 -3.4e+38 -3.4e+38 2398 2398 2398 2399 2401 2401 2406 2420 2433 2446 2437 2433 2430 2437 2440 2444 2447 2453 2456 2457 2460 2469 2476 2484 2489 2496 2507 2510 2507 2499 2506 2512 2514 2514 2522 2539 2559 2564 2562 2556 2558 2569 2580 2583 2586 2581 2580 2580 2588 2586 2591 2598 2601 2617 2630 2654 2646 2639 2638 2643 2654 2678 2687 2686 2695 2734 2749 2761 2779 2788 2796 2805 2814 2830 2856 2871 2884 2881 2880 2887 2905 2915 2929 2946 2966 3003 3017 3020 3035 3054 3066 3101 3118 3124 3107 3079 3045 3009 2995 2984 2965 2954 2945 2937 2931 2914 2932 2950 2980 3003 3011 3007 3018 3033 3059 3095 3110 3119 3114 3110 3109 3109 3108 3101 3097 3102 3116 3133 3145 3187 3200 3230 3248 3253 3256 3251 3247 3234 3214 3206 3200 3190 3187 3182 3178 3175 3172 3172 3174 3177 3176 3177 3179 3198 3208 3223 3223 3213 3192 3199 3203 3201 3206 3226 3246 3267 3275 3296 3299 3300 3280 3271 3246 3223 3219 3230 3244 3251 3273 3284 3282 3277 3272 3271 3276 3282 3283 3283 3288 3292 3301 3312 3317 3323 3326 3325 3320 3304 3300 3292 3287 3285 3283 3282 3281 3279 3277 3273 3268 3266 3263 3262 3262 3265 3270 3272 3278 3278 3274 3270 3270 3268 3262 3256 3254 3245 3231 3226 3219 3213 3209 3178 3148 3136 3116 3101 3100 3106 3085 3073 3058 3052 3045 3041 3041 3036 3026 3021 3009 2999 2997 2992 2986 2984 2981 2978 2976 2973 2973 2974 2976 2979 2979 2977 2990 3000 2993 2990 2994 2992 -3.4e+38 -3.4e+38 -3.4e+38 -3.4e+38 -3.4e+38 -3.4e+38 -3.4e+38 -3.4e+38 -3.4e+38 -3.4e+38 -3.4e+38 -3.4e+38 -3.4e+38 -3.4e+38 -3.4e+38 -3.4e+38 -3.4e+38 -3.4e+38 -3.4e+38 -3.4e+38 -3.4e+38 -3.4e+38 -3.4e+38 -3.4e+38 -3.4e+38 -3.4e+38 -3.4e+38 -3.4e+38 -3.4e+38 -3.4e+38 -3.4e+38 -3.4e+38 -3.4e+38 -3.4e+38 -3.4e+38 -3.4e+38 -3.4e+38 -3.4e+38 -3.4e+38 -3.4e+38 -3.4e+38 -3.4e+38 -3.4e+38 -3.4e+38 -3.4e+38 -3.4e+38 -3.4e+38 -3.4e+38 -3.4e+38 -3.4e+38 -3.4e+38 -3.4e+38 -3.4e+38 -3.4e+38 -3.4e+38 -3.4e+38 -3.4e+38 -3.4e+38 -3.4e+38 -3.4e+38 -3.4e+38 -3.4e+38 -3.4e+38 -3.4e+38 -3.4e+38 -3.4e+38 -3.4e+38 -3.4e+38 -3.4e+38 -3.4e+38 -3.4e+38 -3.4e+38 -3.4e+38 -3.4e+38 -3.4e+38 -3.4e+38 -3.4e+38 -3.4e+38 -3.4e+38 -3.4e+38 -3.4e+38 -3.4e+38 -3.4e+38 -3.4e+38 -3.4e+38 -3.4e+38 -3.4e+38 -3.4e+38 -3.4e+38 -3.4e+38 -3.4e+38 -3.4e+38 -3.4e+38 -3.4e+38 -3.4e+38 -3.4e+38 -3.4e+38
-3.4e+38 -3.4e+38 -3.4e+38 -3.4e+38 -3.4e+38 -3.4e+38 -3.4e+38 -3.4e+38 -3.4e+38 -3.4e+38 -3.4e+38 -3.4e+38 -3.4e+38 -3.4e+38 -3.4e+38 -3.4e+38 -3.4e+38 -3.4e+38 -3.4e+38 -3.4e+38 -3.4e+38 -3.4e+38 -3.4e+38 -3.4e+38 -3.4e+38 -3.4e+38 -3.4e+38 -3.4e+38 -3.4e+38 -3.4e+38 -3.4e+38 -3.4e+38 -3.4e+38 -3.4e+38 -3.4e+38 -3.4e+38 -3.4e+38 -3.4e+38 -3.4e+38 -3.4e+38 -3.4e+38 -3.4e+38 -3.4e+38 -3.4e+38 -3.4e+38 -3.4e+38 -3.4e+38 -3.4e+38 -3.4e+38 -3.4e+38 -3.4e+38 -3.4e+38 2398 2396 2396 2397 2399 2400 2401 2407 2419 2429 2439 2428 2425 2427 2436 2440 2442 2444 2450 2454 2457 2463 2473 2478 2485 2489 2495 2512 2525 2524 2510 2507 2511 2514 2525 2534 2556 2567 2569 2566 2562 2564 2573 2582 2585 2587 2580 2578 2577 2583 2589 2597 2602 2606 2625 2640 2660 2656 2651 2649 2652 2652 2664 2674 2681 2710 2755 2772 2789 2805 2816 2819 2805 2814 2829 2859 2874 2890 2893 2897 2900 2915 2923 2937 2956 2976 3014 3032 3037 3051 3070 3084 3106 3113 3110 3103 3085 3046 3011 2998 2980 2958 2947 2939 2933 2925 2910 2933 2950 2978 2990 2996 2991 3018 3033 3056 3082 3090 3101 3097 3094 3094 3095 3097 3089 3094 3098 3111 3133 3148 3196 3211 3239 3251 3255 3258 3254 3250 3234 3209 3202 3198 3187 3184 3181 3176 3173 3176 3176 3178 3181 3180 3180 3179 3196 3205 3222 3222 3212 3195 3203 3209 3213 3224 3242 3256 3274 3285 3305 3306 3296.36840820312 3283 3272 3248 3228 3225 3233 3245 3251 3271 3281 3281 3279 3276 3277 3282 3289 3290 3291 3297 3301 3312 3323 3328 3334 3333 3329 3320 3303 3300 3292 3286 3284 3282 3282 3281 3280 3278 3274 3269 3267 3264 3262 3262 3266 3274 3278 3286 3287 3284 3279 3280 3278 3268 3260 3257 3248 3236 3231 3223 3214 3207 3171 3141 3130 3111 3095 3100 3095 3082 3074 3060 3054 3047 3043 3042 3037 3025 3020 3008 3000 2998 2992 2986 2984 2981 2979 2977 2975 2978 2981 2984 2986 2986 2985 3001 3004 3002 3000 3002 2999 -3.4e+38 -3.4e+38 -3.4e+38 -3.4e+38 -3.4e+38 -3.4e+38 -3.4e+38 -3.4e+38 -3.4e+38 -3.4e+38 -3.4e+38 -3.4e+38 -3.4e+38 -3.4e+38 -3.4e+38 -3.4e+38 -3.4e+38 -3.4e+38 -3.4e+38 -3.4e+38 -3.4e+38 -3.4e+38 -3.4e+38 -3.4e+38 -3.4e+38 -3.4e+38 -3.4e+38 -3.4e+38 -3.4e+38 -3.4e+38 -3.4e+38 -3.4e+38 -3.4e+38 -3.4e+38 -3.4e+38 -3.4e+38 -3.4e+38 -3.4e+38 -3.4e+38 -3.4e+38 -3.4e+38 -3.4e+38 -3.4e+38 -3.4e+38 -3.4e+38 -3.4e+38 -3.4e+38 -3.4e+38 -3.4e+38 -3.4e+38 -3.4e+38 -3.4e+38 -3.4e+38 -3.4e+38 -3.4e+38 -3.4e+38 -3.4e+38 -3.4e+38 -3.4e+38 -3.4e+38 -3.4e+38 -3.4e+38 -3.4e+38 -3.4e+38 -3.4e+38 -3.4e+38 -3.4e+38 -3.4e+38 -3.4e+38 -3.4e+38 -3.4e+38 -3.4e+38 -3.4e+38 -3.4e+38 -3.4e+38 -3.4e+38 -3.4e+38 -3.4e+38 -3.4e+38 -3.4e+38 -3.4e+38 -3.4e+38 -3.4e+38 -3.4e+38 -3.4e+38 -3.4e+38 -3.4e+38 -3.4e+38 -3.4e+38 -3.4e+38 -3.4e+38 -3.4e+38 -3.4e+38 -3.4e+38 -3.4e+38 -3.4e+38 -3.4e+38
-3.4e+38 -3.4e+38 -3.4e+38 -3.4e+38 -3.4e+38 -3.4e+38 -3.4e+38 -3.4e+38 -3.4e+38 -3.4e+38 -3.4e+38 -3.4e+38 -3.4e+38 -3.4e+38 -3.4e+38 -3.4e+38 -3.4e+38 -3.4e+38 -3.4e+38 -3.4e+38 -3.4e+38 -3.4e+38 -3.4e+38 -3.4e+38 -3.4e+38 -3.4e+38 -3.4e+38 -3.4e+38 -3.4e+38 -3.4e+38 -3.4e+38 -3.4e+38 -3.4e+38 -3.4e+38 -3.4e+38 -3.4e+38 -3.4e+38 -3.4e+38 -3.4e+38 -3.4e+38 -3.4e+38 -3.4e+38 -3.4e+38 -3.4e+38 -3.4e+38 -3.4e+38 -3.4e+38 -3.4e+38 -3.4e+38 -3.4e+38 -3.4e+38 -3.4e+38 2391 2392 2394 2395 2399 2400 2402 2407 2412 2412 2413 2420 2421 2426 2431 2434 2443 2449 2457 2462 2465 2475 2483 2489 2500 2500 2505 2525 2542 2540 2535 2535 2538 2545 2558 2562 2566 2565 2564 2563 2564 2567 2574 2581 2584 2581 2568 2569 2578 2591 2597 2606 2614 2620 2644 2657 2661 2660 2660 2675 2681 2677 2691 2703 2713 2744 2779 2796 2815 2828 2841 2844 2835 2831 2835 2866 2881 2896 2908 2913 2920 2932 2939 2954 2971 2982 3020 3052 3061 3075 3092 3099 3091 3082 3071 3086 3093 3056 3027 3014 2987 2954 2940 2924 2916 2909 2888 2929 2944 2959 2968 2967 2967 3019 3034 3051 3066 3071 3080 3079 3077 3080 3080 3077 3079 3098 3102 3111 3136 3152 3201 3220 3249 3258 3260 3260 3256 3250 3227 3197 3185 3173 3172 3172 3164 3157 3161 3181 3182 3184 3186 3187 3187 3189 3193 3196 3205 3210 3206 3198 3209 3219 3238 3259 3260 3267 3294 3308 3320 3320 3300 3286 3272 3246 3233 3233 3239 3248 3254 3267 3281 3284 3289 3292 3294 3299 3304 3307 3314 3324 3327 3336 3345 3348 3345 3338 3332 3312 3301 3298 3290 3283 3281 3279 3279 3278 3276 3275 3272 3270 3268 3263 3260 3260 3264 3273 3277 3285 3288 3287 3286 3285 3282 3273 3264 3261 3254 3243 3237 3220 3200 3189 3150 3134 3126 3107 3092 3087 3079 3072 3067 3058 3052 3045 3041 3040 3033 3022 3018 3007 3001 2999 2992 2990 2991 2993 2995 2994 2993 2996 3001 3004 3004 3004 3003 3007 3010 3012 3012 3011 -3.4e+38 -3.4e+38 -3.4e+38 -3.4e+38 -3.4e+38 -3.4e+38 -3.4e+38 -3.4e+38 -3.4e+38 -3.4e+38 -3.4e+38 -3.4e+38 -3.4e+38 -3.4e+38 -3.4e+38 -3.4e+38 -3.4e+38 -3.4e+38 -3.4e+38 -3.4e+38 -3.4e+38 -3.4e+38 -3.4e+38 -3.4e+38 -3.4e+38 -3.4e+38 -3.4e+38 -3.4e+38 -3.4e+38 -3.4e+38 -3.4e+38 -3.4e+38 -3.4e+38 -3.4e+38 -3.4e+38 -3.4e+38 -3.4e+38 -3.4e+38 -3.4e+38 -3.4e+38 -3.4e+38 -3.4e+38 -3.4e+38 -3.4e+38 -3.4e+38 -3.4e+38 -3.4e+38 -3.4e+38 -3.4e+38 -3.4e+38 -3.4e+38 -3.4e+38 -3.4e+38 -3.4e+38 -3.4e+38 -3.4e+38 -3.4e+38 -3.4e+38 -3.4e+38 -3.4e+38 -3.4e+38 -3.4e+38 -3.4e+38 -3.4e+38 -3.4e+38 -3.4e+38 -3.4e+38 -3.4e+38 -3.4e+38 -3.4e+38 -3.4e+38 -3.4e+38 -3.4e+38 -3.4e+38 -3.4e+38 -3.4e+38 -3.4e+38 -3.4e+38 -3.4e+38 -3.4e+38 -3.4e+38 -3.4e+38 -3.4e+38 -3.4e+38 -3.4e+38 -3.4e+38 -3.4e+38 -3.4e+38 -3.4e+38 -3.4e+38 -3.4e+38 -3.4e+38 -3.4e+38 -3.4e+38 -3.4e+38 -3.4e+38 -3.4e+38 -3.4e+38
-3.4e+38 -3.4e+38 -3.4e+38 -3.4e+38 -3.4e+38 -3.4e+38 -3.4e+38 -3.4e+38 -3.4e+38 -3.4e+38 -3.4e+38 -3.4e+38 -3.4e+38 -3.4e+38 -3.4e+38 -3.4e+38 -3.4e+38 -3.4e+38 -3.4e+38 -3.4e+38 -3.4e+38 -3.4e+38 -3.4e+38 -3.4e+38 -3.4e+38 -3.4e+38 -3.4e+38 -3.4e+38 -3.4e+38 -3.4e+38 -3.4e+38 -3.4e+38 -3.4e+38 -3.4e+38 -3.4e+38 -3.4e+38 -3.4e+38 -3.4e+38 -3.4e+38 -3.4e+38 -3.4e+38 -3.4e+38 -3.4e+38 -3.4e+38 -3.4e+38 -3.4e+38 -3.4e+38 -3.4e+38 -3.4e+38 -3.4e+38 -3.4e+38 -3.4e+38 2384 2388 2391 2394 2398 2400 2402 2404 2406 2407 2417 2422 2424 2428 2434 2440 2460 2467 2474 2479 2479 2482 2489 2495 2518 2523 2527 2546 2557 2562 2566 2568 2568 2567 2565 2563 2559 2558 2557 2557 2560 2564 2573 2580 2581 2560 2560 2567 2591 2612 2618 2623 2632 2639 2659 2664 2662 2659 2658 2670 2690 2697 2711 2725 2735 2754 2778 2791 2815 2843 2859 2868 2865 2861 2850 2867 2879 2895 2908 2914 2925 2934 2940 2959 2980 2992 3023 3047 3054 3059 3060 3059 3052 3043 3040 3073 3079 3066 3049 3039 3004 2972 2952 2920 2897 2884 2881 2921 2931 2935 2939 2937 2981 3021 3030 3037 3049 3055 3058 3048 3051 3067 3068 3066 3070 3096 3105 3119 3139 3167 3196 3214 3245 3258 3260 3259 3251 3243 3211 3176 3163 3149 3148 3149 3142 3141 3150 3181 3185 3188 3197 3203 3204 3203 3198 3197 3197 3197 3195 3193 3207 3215 3237 3263 3262 3272 3305 3318 3323 3321 3295 3268.36840820312 3260 3237 3225 3228 3240 3256 3261 3270 3284 3290 3303 3309 3311 3315 3320 3322 3331 3339 3342 3349 3354 3354 3348 3338 3331 3309 3299 3297 3290 3283 3280 3278 3276 3269 3263 3264 3267 3267 3265 3261 3256 3255 3257 3260 3260 3261 3262 3262 3262 3262 3261 3263 3264 3263 3256 3244 3235 3207 3190 3165 3141 3126 3121 3104 3088 3083 3076 3066 3059 3047 3043 3039 3035 3032 3025 3018 3012 3006 3001 3003 3006 3008 3007 3004 3006 3009 3013 3015 3016 3017 3017 3017 3017 3016 3017 3018 3017 -3.4e+38 -3.4e+38 -3.4e+38 -3.4e+38 -3.4e+38 -3.4e+38 -3.4e+38 -3.4e+38 -3.4e+38 -3.4e+38 -3.4e+38 -3.4e+38 -3.4e+38 -3.4e+38 -3.4e+38 -3.4e+38 -3.4e+38 -3.4e+38 -3.4e+38 -3.4e+38 -3.4e+38 -3.4e+38 -3.4e+38 -3.4e+38 -3.4e+38 -3.4e+38 -3.4e+38 -3.4e+38 -3.4e+38 -3.4e+38 -3.4e+38 -3.4e+38 -3.4e+38 -3.4e+38 -3.4e+38 -3.4e+38 -3.4e+38 -3.4e+38 -3.4e+38 -3.4e+38 -3.4e+38 -3.4e+38 -3.4e+38 -3.4e+38 -3.4e+38 -3.4e+38 -3.4e+38 -3.4e+38 -3.4e+38 -3.4e+38 -3.4e+38 -3.4e+38 -3.4e+38 -3.4e+38 -3.4e+38 -3.4e+38 -3.4e+38 -3.4e+38 -3.4e+38 -3.4e+38 -3.4e+38 -3.4e+38 -3.4e+38 -3.4e+38 -3.4e+38 -3.4e+38 -3.4e+38 -3.4e+38 -3.4e+38 -3.4e+38 -3.4e+38 -3.4e+38 -3.4e+38 -3.4e+38 -3.4e+38 -3.4e+38 -3.4e+38 -3.4e+38 -3.4e+38 -3.4e+38 -3.4e+38 -3.4e+38 -3.4e+38 -3.4e+38 -3.4e+38 -3.4e+38 -3.4e+38 -3.4e+38 -3.4e+38 -3.4e+38 -3.4e+38 -3.4e+38 -3.4e+38 -3.4e+38 -3.4e+38 -3.4e+38 -3.4e+38 -3.4e+38 -3.4e+38
-3.4e+38 -3.4e+38 -3.4e+38 -3.4e+38 -3.4e+38 -3.4e+38 -3.4e+38 -3.4e+38 -3.4e+38 -3.4e+38 -3.4e+38 -3.4e+38 -3.4e+38 -3.4e+38 -3.4e+38 -3.4e+38 -3.4e+38 -3.4e+38 -3.4e+38 -3.4e+38 -3.4e+38 -3.4e+38 -3.4e+38 -3.4e+38 -3.4e+38 -3.4e+38 -3.4e+38 -3.4e+38 -3.4e+38 -3.4e+38 -3.4e+38 -3.4e+38 -3.4e+38 -3.4e+38 -3.4e+38 -3.4e+38 -3.4e+38 -3.4e+38 -3.4e+38 -3.4e+38 -3.4e+38 -3.4e+38 -3.4e+38 -3.4e+38 -3.4e+38 -3.4e+38 -3.4e+38 -3.4e+38 -3.4e+38 -3.4e+38 -3.4e+38 2383 2384 2387 2392 2394 2399 2401 2402 2405 2408 2411 2419 2424 2427 2434 2441 2450 2469 2475 2479 2482 2483 2485 2490 2496 2516 2528 2535 2566 2572 2576 2576 2570 2569 2564 2561 2560 2556 2554 2554 2556 2559 2562 2572 2578 2568 2555 2561 2569 2598 2622 2628 2632 2636 2640 2654 2659 2660 2655 2654 2661 2679 2683 2705 2733 2735 2754 2774 2784 2813 2841 2854 2863 2858 2853 2849 2866 2875 2890 2906 2913 2925 2934 2940 2956 2978 2989 3014 3035 3040 3041 3040 3039 3034 3028 3029 3060 3067 3060 3045 3037 3007 2979 2960 2924 2889 2871 2877 2916 2922 2920 2925 2934 2986 3020 3027 3033 3040 3044 3040 3032 3038 3056 3059 3059 3066 3089 3101 3119 3138 3165 3193 3210 3240 3254 3257 3256 3245 3238 3205 3171 3159 3141 3130 3129 3128 3141 3161 3179 3186 3190 3200 3209 3211 3211 3200 3199 3195 3187 3183 3184 3203 3210 3227 3250 3253 3267 3296 3304 3305 3303 3282 3259.84204101562 3246.5263671875 3227 3220 3224 3240 3259 3264 3272 3288 3294 3309 3319 3319 3322 3328 3331 3339 3344 3347 3354 3357 3356 3349 3336 3330 3310 3300 3297 3292 3287 3283 3280 3278 3266 3258 3259 3263 3263 3262 3258 3250 3248 3249 3250 3250 3250 3250 3250 3250 3251 3253 3256 3259 3259 3252 3240 3232 3207 3185 3160 3139 3125 3119 3104 3089 3084 3077 3066 3059 3047 3043 3038 3032 3028 3022 3017 3012 3010 3009 3010 3017 3015 3013 3011 3013 3015 3020 3023 3023 3023 3023 3022 3022 3019 3019 3019 -3.4e+38 -3.4e+38 -3.4e+38 -3.4e+38 -3.4e+38 -3.4e+38 -3.4e+38 -3.4e+38 -3.4e+38 -3.4e+38 -3.4e+38 -3.4e+38 -3.4e+38 -3.4e+38 -3.4e+38 -3.4e+38 -3.4e+38 -3.4e+38 -3.4e+38 -3.4e+38 -3.4e+38 -3.4e+38 -3.4e+38 -3.4e+38 -3.4e+38 -3.4e+38 -3.4e+38 -3.4e+38 -3.4e+38 -3.4e+38 -3.4e+38 -3.4e+38 -3.4e+38 -3.4e+38 -3.4e+38 -3.4e+38 -3.4e+38 -3.4e+38 -3.4e+38 -3.4e+38 -3.4e+38 -3.4e+38 -3.4e+38 -3.4e+38 -3.4e+38 -3.4e+38 -3.4e+38 -3.4e+38 -3.4e+38 -3.4e+38 -3.4e+38 -3.4e+38 -3.4e+38 -3.4e+38 -3.4e+38 -3.4e+38 -3.4e+38 -3.4e+38 -3.4e+38 -3.4e+38 -3.4e+38 -3.4e+38 -3.4e+38 -3.4e+38 -3.4e+38 -3.4e+38 -3.4e+38 -3.4e+38 -3.4e+38 -3.4e+38 -3.4e+38 -3.4e+38 -3.4e+38 -3.4e+38 -3.4e+38 -3.4e+38 -3.4e+38 -3.4e+38 -3.4e+38 -3.4e+38 -3.4e+38 -3.4e+38 -3.4e+38 -3.4e+38 -3.4e+38 -3.4e+38 -3.4e+38 -3.4e+38 -3.4e+38 -3.4e+38 -3.4e+38 -3.4e+38 -3.4e+38 -3.4e+38 -3.4e+38 -3.4e+38 -3.4e+38 -3.4e+38 -3.4e+38 -3.4e+38
-3.4e+38 -3.4e+38 -3.4e+38 -3.4e+38 -3.4e+38 -3.4e+38 -3.4e+38 -3.4e+38 -3.4e+38 -3.4e+38 -3.4e+38 -3.4e+38 -3.4e+38 -3.4e+38 -3.4e+38 -3.4e+38 -3.4e+38 -3.4e+38 -3.4e+38 -3.4e+38 -3.4e+38 -3.4e+38 -3.4e+38 -3.4e+38 -3.4e+38 -3.4e+38 -3.4e+38 -3.4e+38 -3.4e+38 -3.4e+38 -3.4e+38 -3.4e+38 -3.4e+38 -3.4e+38 -3.4e+38 -3.4e+38 -3.4e+38 -3.4e+38 -3.4e+38 -3.4e+38 -3.4e+38 -3.4e+38 -3.4e+38 -3.4e+38 -3.4e+38 -3.4e+38 -3.4e+38 -3.4e+38 -3.4e+38 -3.4e+38 -3.4e+38 2384 2385 2389 2393 2394 2398 2401 2403 2407 2412 2415 2422 2429 2433 2440 2451 2460 2473 2477 2479 2480 2484 2492 2496 2501 2519 2533 2542 2579 2582 2581 2574 2560 2556 2552 2550 2549 2547 2546 2547 2552 2558 2561 2566 2569 2557 2554 2568 2578 2601 2621 2633 2643 2639 2639 2638 2641 2650 2645 2643 2647 2662 2689 2715 2750 2760 2773 2784 2791 2811 2819 2817 2819 2816 2819 2846 2873 2877 2890 2912 2917 2923 2924 2922 2928 2949 2958 2980 3000 3003 2999 3000 3004 3005 3004 3010 3042 3049 3040 3014 3001 2983 2967 2957 2927 2883 2860 2870 2894 2898 2903 2921 2937 2992 3011 3017 3024 3021 3016 3001 3003 3013 3032 3040 3046 3064 3085 3095 3112 3131 3158 3193 3207 3224 3233 3237 3239 3234 3227 3205 3183 3174 3145 3115 3109 3115 3132 3152 3169 3182 3189 3202 3216 3219 3223 3214 3205 3198 3183 3174 3169 3191 3200 3210 3213 3219 3240 3256 3257 3256 3254 3248 3236 3227 3213 3218 3223 3242 3263 3269 3277 3300 3308 3323 3333 3336 3340 3343 3344 3351 3354 3356 3360 3359 3358 3349 3336 3329 3313 3307 3305 3300 3299 3295 3286 3281 3269 3254 3248 3245 3245 3245 3241 3235 3231 3229 3226 3226 3226 3222 3221 3221 3226 3227 3228 3229 3230 3241 3233 3227 3209 3193 3171 3148 3130 3124 3111 3097 3093 3081 3070 3060 3048 3044 3040 3035 3032 3027 3023 3024 3025 3024 3023 3026 3029 3030 3028 3028 3030 3035 3036 3037 3035 3034 3033 3031 3024 3022 3020 -3.4e+38 -3.4e+38 -3.4e+38 -3.4e+38 -3.4e+38 -3.4e+38 -3.4e+38 -3.4e+38 -3.4e+38 -3.4e+38 -3.4e+38 -3.4e+38 -3.4e+38 -3.4e+38 -3.4e+38 -3.4e+38 -3.4e+38 -3.4e+38 -3.4e+38 -3.4e+38 -3.4e+38 -3.4e+38 -3.4e+38 -3.4e+38 -3.4e+38 -3.4e+38 -3.4e+38 -3.4e+38 -3.4e+38 -3.4e+38 -3.4e+38 -3.4e+38 -3.4e+38 -3.4e+38 -3.4e+38 -3.4e+38 -3.4e+38 -3.4e+38 -3.4e+38 -3.4e+38 -3.4e+38 -3.4e+38 -3.4e+38 -3.4e+38 -3.4e+38 -3.4e+38 -3.4e+38 -3.4e+38 -3.4e+38 -3.4e+38 -3.4e+38 -3.4e+38 -3.4e+38 -3.4e+38 -3.4e+38 -3.4e+38 -3.4e+38 -3.4e+38 -3.4e+38 -3.4e+38 -3.4e+38 -3.4e+38 -3.4e+38 -3.4e+38 -3.4e+38 -3.4e+38 -3.4e+38 -3.4e+38 -3.4e+38 -3.4e+38 -3.4e+38 -3.4e+38 -3.4e+38 -3.4e+38 -3.4e+38 -3.4e+38 -3.4e+38 -3.4e+38 -3.4e+38 -3.4e+38 -3.4e+38 -3.4e+38 -3.4e+38 -3.4e+38 -3.4e+38 -3.4e+38 -3.4e+38 -3.4e+38 -3.4e+38 -3.4e+38 -3.4e+38 -3.4e+38 -3.4e+38 -3.4e+38 -3.4e+38 -3.4e+38 -3.4e+38 -3.4e+38 -3.4e+38 -3.4e+38
-3.4e+38 -3.4e+38 -3.4e+38 -3.4e+38 -3.4e+38 -3.4e+38 -3.4e+38 -3.4e+38 -3.4e+38 -3.4e+38 -3.4e+38 -3.4e+38 -3.4e+38 -3.4e+38 -3.4e+38 -3.4e+38 -3.4e+38 -3.4e+38 -3.4e+38 -3.4e+38 -3.4e+38 -3.4e+38 -3.4e+38 -3.4e+38 -3.4e+38 -3.4e+38 -3.4e+38 -3.4e+38 -3.4e+38 -3.4e+38 -3.4e+38 -3.4e+38 -3.4e+38 -3.4e+38 -3.4e+38 -3.4e+38 -3.4e+38 -3.4e+38 -3.4e+38 -3.4e+38 -3.4e+38 -3.4e+38 -3.4e+38 -3.4e+38 -3.4e+38 -3.4e+38 -3.4e+38 -3.4e+38 -3.4e+38 -3.4e+38 -3.4e+38 2382 2384 2388 2392 2394 2398 2402 2404 2408 2413 2416 2425 2434 2438 2442 2452 2457 2465 2466 2468 2478 2483 2497 2508 2516 2531 2543 2549 2567 2570 2569 2562 2547 2540 2536 2536 2536 2537 2539 2541 2548 2553 2553 2549 2543 2540 2555 2574 2586 2604 2614 2621 2636 2636 2631 2630 2636 2643 2640 2640 2643 2656 2685 2723 2759 2768 2780 2785 2786 2784 2779 2773 2773 2789 2805 2856 2887 2894 2906 2930 2937 2928 2910 2905 2905 2921 2930 2952 2962 2959 2956 2969 2979 2987 2987 2994 3025 3040 3041 3005 2982 2945 2928 2921 2906 2866 2844 2854 2876 2896 2924 2935 2949 2985 2995 2999 2995 2980 2976 2979 2991 3002 3020 3037 3045 3064 3085 3095 3107 3147 3163 3190 3197 3198 3200 3205 3215 3217 3216 3210 3188 3175 3144 3106 3090 3093 3123 3132 3149 3165 3172 3190 3208 3217 3217 3204 3203 3203 3187 3171 3160 3178 3186 3192 3181 3185 3202 3213 3215 3214 3214 3214 3212 3210 3215.33325195312 3225 3237 3258 3273 3279 3286 3312 3321 3336 3347 3352 3356 3360 3360 3364 3367 3367 3367 3363 3359 3349 3339 3333 3318 3320 3320 3316 3309 3305 3297 3291 3275 3259 3249 3233 3228 3226 3222 3219 3216 3209 3204 3202 3199 3195 3194 3193 3191 3190 3205 3209 3210 3208 3202 3199 3195 3188 3182 3163 3144 3139 3128 3119 3115 3097 3080 3070 3055 3050 3045 3043 3043 3044 3044 3044 3043 3039 3039 3042 3044 3043 3039 3043 3047 3049 3049 3047 3043 3040 3039 3038 3028 3025 -3.4e+38 -3.4e+38 -3.4e+38 -3.4e+38 -3.4e+38 -3.4e+38 -3.4e+38 -3.4e+38 -3.4e+38 -3.4e+38 -3.4e+38 -3.4e+38 -3.4e+38 -3.4e+38 -3.4e+38 -3.4e+38 -3.4e+38 -3.4e+38 -3.4e+38 -3.4e+38 -3.4e+38 -3.4e+38 -3.4e+38 -3.4e+38 -3.4e+38 -3.4e+38 -3.4e+38 -3.4e+38 -3.4e+38 -3.4e+38 -3.4e+38 -3.4e+38 -3.4e+38 -3.4e+38 -3.4e+38 -3.4e+38 -3.4e+38 -3.4e+38 -3.4e+38 -3.4e+38 -3.4e+38 -3.4e+38 -3.4e+38 -3.4e+38 -3.4e+38 -3.4e+38 -3.4e+38 -3.4e+38 -3.4e+38 -3.4e+38 -3.4e+38 -3.4e+38 -3.4e+38 -3.4e+38 -3.4e+38 -3.4e+38 -3.4e+38 -3.4e+38 -3.4e+38 -3.4e+38 -3.4e+38 -3.4e+38 -3.4e+38 -3.4e+38 -3.4e+38 -3.4e+38 -3.4e+38 -3.4e+38 -3.4e+38 -3.4e+38 -3.4e+38 -3.4e+38 -3.4e+38 -3.4e+38 -3.4e+38 -3.4e+38 -3.4e+38 -3.4e+38 -3.4e+38 -3.4e+38 -3.4e+38 -3.4e+38 -3.4e+38 -3.4e+38 -3.4e+38 -3.4e+38 -3.4e+38 -3.4e+38 -3.4e+38 -3.4e+38 -3.4e+38 -3.4e+38 -3.4e+38 -3.4e+38 -3.4e+38 -3.4e+38 -3.4e+38 -3.4e+38 -3.4e+38 -3.4e+38 -3.4e+38
-3.4e+38 -3.4e+38 -3.4e+38 -3.4e+38 -3.4e+38 -3.4e+38 -3.4e+38 -3.4e+38 -3.4e+38 -3.4e+38 -3.4e+38 -3.4e+38 -3.4e+38 -3.4e+38 -3.4e+38 -3.4e+38 -3.4e+38 -3.4e+38 -3.4e+38 -3.4e+38 -3.4e+38 -3.4e+38 -3.4e+38 -3.4e+38 -3.4e+38 -3.4e+38 -3.4e+38 -3.4e+38 -3.4e+38 -3.4e+38 -3.4e+38 -3.4e+38 -3.4e+38 -3.4e+38 -3.4e+38 -3.4e+38 -3.4e+38 -3.4e+38 -3.4e+38 -3.4e+38 -3.4e+38 -3.4e+38 -3.4e+38 -3.4e+38 -3.4e+38 -3.4e+38 -3.4e+38 -3.4e+38 -3.4e+38 -3.4e+38 -3.4e+38 2381 2383 2387 2391 2393 2398 2402 2404 2407 2413 2417 2427 2436 2439 2443 2449 2454 2459 2459 2462 2476 2483 2499 2511 2520 2534 2545 2550 2560 2563 2562 2556 2540 2534 2530 2530 2530 2532 2537 2539 2545 2548 2546 2539 2538 2540 2559 2576 2587 2602 2611 2618 2625 2622 2620 2621 2627 2638 2640 2639 2640 2662 2677 2718 2748 2757 2765 2770 2768 2758 2755 2752 2762 2790 2809 2858 2890 2897 2907 2928 2937 2922 2900 2898 2897 2907 2915 2935 2940 2939 2943 2965 2976 2981 2979 2982 3013 3029 3041 3009 2985 2943 2914 2904 2888 2855 2836 2844 2887 2905 2934 2944 2954 2972 2987 2991 2980 2968 2965 2972 2995 3009 3027 3041 3049 3066 3085 3095 3107 3148 3164 3180 3181 3177 3180 3189 3208 3212 3212 3210 3187 3167 3138 3107 3088 3080 3112 3124 3141 3153 3159 3178 3193 3199 3201 3196 3198 3199 3183 3167 3159 3174 3179 3173 3166 3169 3187 3200 3203 3204 3204 3204 3204 3203 3215 3234 3247 3268 3282 3288 3292 3318 3326 3341 3355 3360 3364 3369 3369 3372 3375 3374 3372 3365 3360 3349 3340 3336 3322 3325 3326 3323 3317 3313 3303 3297 3277 3259 3251 3236 3223 3219 3215 3211 3208 3200 3197 3195 3191 3186 3185 3184 3191 3190 3191 3193 3194 3194 3190 3188 3185 3180 3174 3163 3151 3145 3135 3124 3120 3102 3083 3075 3060 3056 3054 3054 3054 3054 3055 3054 3050 3045 3045 3048 3049 3048 3043 3052 3055 3056 3054 3052 3047 3042 3041 3037 3030 -3.4e+38 -3.4e+38 -3.4e+38 -3.4e+38 -3.4e+38 -3.4e+38 -3.4e+38 -3.4e+38 -3.4e+38 -3.4e+38 -3.4e+38 -3.4e+38 -3.4e+38 -3.4e+38 -3.4e+38 -3.4e+38 -3.4e+38 -3.4e+38 -3.4e+38 -3.4e+38 -3.4e+38 -3.4e+38 -3.4e+38 -3.4e+38 -3.4e+38 -3.4e+38 -3.4e+38 -3.4e+38 -3.4e+38 -3.4e+38 -3.4e+38 -3.4e+38 -3.4e+38 -3.4e+38 -3.4e+38 -3.4e+38 -3.4e+38 -3.4e+38 -3.4e+38 -3.4e+38 -3.4e+38 -3.4e+38 -3.4e+38 -3.4e+38 -3.4e+38 -3.4e+38 -3.4e+38 -3.4e+38 -3.4e+38 -3.4e+38 -3.4e+38 -3.4e+38 -3.4e+38 -3.4e+38 -3.4e+38 -3.4e+38 -3.4e+38 -3.4e+38 -3.4e+38 -3.4e+38 -3.4e+38 -3.4e+38 -3.4e+38 -3.4e+38 -3.4e+38 -3.4e+38 -3.4e+38 -3.4e+38 -3.4e+38 -3.4e+38 -3.4e+38 -3.4e+38 -3.4e+38 -3.4e+38 -3.4e+38 -3.4e+38 -3.4e+38 -3.4e+38 -3.4e+38 -3.4e+38 -3.4e+38 -3.4e+38 -3.4e+38 -3.4e+38 -3.4e+38 -3.4e+38 -3.4e+38 -3.4e+38 -3.4e+38 -3.4e+38 -3.4e+38 -3.4e+38 -3.4e+38 -3.4e+38 -3.4e+38 -3.4e+38 -3.4e+38 -3.4e+38 -3.4e+38 -3.4e+38 -3.4e+38 -3.4e+38
-3.4e+38 -3.4e+38 -3.4e+38 -3.4e+38 -3.4e+38 -3.4e+38 -3.4e+38 -3.4e+38 -3.4e+38 -3.4e+38 -3.4e+38 -3.4e+38 -3.4e+38 -3.4e+38 -3.4e+38 -3.4e+38 -3.4e+38 -3.4e+38 -3.4e+38 -3.4e+38 -3.4e+38 -3.4e+38 -3.4e+38 -3.4e+38 -3.4e+38 -3.4e+38 -3.4e+38 -3.4e+38 -3.4e+38 -3.4e+38 -3.4e+38 -3.4e+38 -3.4e+38 -3.4e+38 -3.4e+38 -3.4e+38 -3.4e+38 -3.4e+38 -3.4e+38 -3.4e+38 -3.4e+38 -3.4e+38 -3.4e+38 -3.4e+38 -3.4e+38 -3.4e+38 -3.4e+38 -3.4e+38 -3.4e+38 -3.4e+38 -3.4e+38 2381 2383 2386 2388 2390 2395 2399 2401 2402 2408 2421 2429 2435 2437 2441 2440 2440 2442 2449 2460 2475 2483 2498 2509 2517 2533 2542 2545 2548 2546 2544 2540 2531 2526 2523 2521 2521 2524 2531 2534 2536 2534 2532 2530 2549 2557 2570 2582 2588 2598 2603 2607 2607 2605 2605 2614 2617 2629 2634 2635 2638 2655 2672 2705 2718 2721 2726 2723 2719 2718 2738 2751 2791 2820 2834 2871 2889 2890 2898 2901 2905 2897 2881 2881 2879 2881 2885 2897 2905 2915 2943 2968 2975 2967 2960 2963 2989 3005 3033 3025 3002 2962 2921 2901 2863 2834 2822 2847 2889 2906 2925 2933 2937 2936 2957 2959 2951 2949 2958 2981 3012 3026 3044 3053 3059 3073 3091 3100 3111 3144 3151 3154 3152 3144 3154 3168 3203 3207 3207 3204 3178 3159 3125 3097 3088 3062 3092 3104 3123 3139 3147 3159 3154 3158 3170 3176 3176 3166 3151 3141 3150 3164 3167 3155 3140 3143 3158 3167 3170 3178 3179 3180 3192 3204 3229 3253.73681640625 3265 3287 3305 3307 3310 3325 3333 3352 3367 3373 3382 3389 3390 3391 3388 3386 3381 3367 3360 3350 3343 3338 3334 3337 3339 3337 3331 3327 3315 3307 3287 3266 3255 3239 3224 3218 3206 3200 3195 3190 3186 3184 3180 3181 3180 3178 3176 3176 3175 3175 3175 3174 3167 3162 3160 3152 3145 3137 3138 3134 3121 3107 3101 3093 3084 3080 3077 3076 3077 3077 3078 3079 3080 3078 3063 3059 3059 3059 3060 3059 3058 3061 3062 3061 3060 3058 3052 3047 3044 3038 -3.4e+38 -3.4e+38 -3.4e+38 -3.4e+38 -3.4e+38 -3.4e+38 -3.4e+38 -3.4e+38 -3.4e+38 -3.4e+38 -3.4e+38 -3.4e+38 -3.4e+38 -3.4e+38 -3.4e+38 -3.4e+38 -3.4e+38 -3.4e+38 -3.4e+38 -3.4e+38 -3.4e+38 -3.4e+38 -3.4e+38 -3.4e+38 -3.4e+38 -3.4e+38 -3.4e+38 -3.4e+38 -3.4e+38 -3.4e+38 -3.4e+38 -3.4e+38 -3.4e+38 -3.4e+38 -3.4e+38 -3.4e+38 -3.4e+38 -3.4e+38 -3.4e+38 -3.4e+38 -3.4e+38 -3.4e+38 -3.4e+38 -3.4e+38 -3.4e+38 -3.4e+38 -3.4e+38 -3.4e+38 -3.4e+38 -3.4e+38 -3.4e+38 -3.4e+38 -3.4e+38 -3.4e+38 -3.4e+38 -3.4e+38 -3.4e+38 -3.4e+38 -3.4e+38 -3.4e+38 -3.4e+38 -3.4e+38 -3.4e+38 -3.4e+38 -3.4e+38 -3.4e+38 -3.4e+38 -3.4e+38 -3.4e+38 -3.4e+38 -3.4e+38 -3.4e+38 -3.4e+38 -3.4e+38 -3.4e+38 -3.4e+38 -3.4e+38 -3.4e+38 -3.4e+38 -3.4e+38 -3.4e+38 -3.4e+38 -3.4e+38 -3.4e+38 -3.4e+38 -3.4e+38 -3.4e+38 -3.4e+38 -3.4e+38 -3.4e+38 -3.4e+38 -3.4e+38 -3.4e+38 -3.4e+38 -3.4e+38 -3.4e+38 -3.4e+38 -3.4e+38 -3.4e+38 -3.4e+38 -3.4e+38 -3.4e+38 -3.4e+38
-3.4e+38 -3.4e+38 -3.4e+38 -3.4e+38 -3.4e+38 -3.4e+38 -3.4e+38 -3.4e+38 -3.4e+38 -3.4e+38 -3.4e+38 -3.4e+38 -3.4e+38 -3.4e+38 -3.4e+38 -3.4e+38 -3.4e+38 -3.4e+38 -3.4e+38 -3.4e+38 -3.4e+38 -3.4e+38 -3.4e+38 -3.4e+38 -3.4e+38 -3.4e+38 -3.4e+38 -3.4e+38 -3.4e+38 -3.4e+38 -3.4e+38 -3.4e+38 -3.4e+38 -3.4e+38 -3.4e+38 -3.4e+38 -3.4e+38 -3.4e+38 -3.4e+38 -3.4e+38 -3.4e+38 -3.4e+38 -3.4e+38 -3.4e+38 -3.4e+38 -3.4e+38 -3.4e+38 -3.4e+38 -3.4e+38 -3.4e+38 -3.4e+38 2381 2383 2384 2384 2384 2384 2383 2384 2391 2396 2403 2422 2425 2426 2428 2434 2436 2442 2450 2463 2472 2479 2492 2500 2510 2526 2536 2539 2538 2532 2530 2528 2524 2521 2520 2518 2518 2522 2525 2525 2521 2519 2520 2539 2561 2564 2571 2579 2581 2585 2590 2593 2600 2600 2602 2611 2615 2621 2627 2628 2634 2650 2661 2677 2682 2684 2685 2691 2698 2734 2768 2788 2824 2847 2856 2879 2874 2866 2867 2879 2884 2876 2859 2857 2854 2858 2863 2887 2909 2920 2947 2962 2963 2952 2945 2946 2970 2986 3018 3022 3010 2974 2931 2907 2863 2823 2811 2831 2857 2873 2894 2894 2892 2909 2919 2917 2923 2952 2968 3007 3030 3036 3041 3052 3059 3075 3093 3104 3117 3126 3127 3122 3138 3134 3149 3163 3187 3192 3190 3188 3171 3155 3117 3080 3069 3055 3068 3079 3104 3129 3141 3140 3125 3126 3138 3139 3135 3128 3118 3120 3144 3149 3149 3139 3129 3129 3137 3140 3141 3149 3152 3166 3194 3213 3244 3273 3277.947265625 3301 3314 3316 3320 3332 3340 3361 3379 3389 3402 3404 3405 3403 3398 3394 3384 3371 3363 3354 3349 3345 3343 3348 3350 3349 3343 3339 3325 3316 3296 3275 3264 3246 3238 3232 3222 3210 3197 3186 3182 3180 3174 3171 3169 3165 3160 3159 3155 3153 3153 3149 3144 3143 3139 3129 3124 3115 3107 3102 3092 3087 3084 3079 3078 3078 3080 3082 3085 3085 3084 3082 3080 3079 3070 3065 3064 3064 3064 3063 3060 3061 3062 3062 3060 3059 3055 3049 3046 -3.4e+38 -3.4e+38 -3.4e+38 -3.4e+38 -3.4e+38 -3.4e+38 -3.4e+38 -3.4e+38 -3.4e+38 -3.4e+38 -3.4e+38 -3.4e+38 -3.4e+38 -3.4e+38 -3.4e+38 -3.4e+38 -3.4e+38 -3.4e+38 -3.4e+38 -3.4e+38 -3.4e+38 -3.4e+38 -3.4e+38 -3.4e+38 -3.4e+38 -3.4e+38 -3.4e+38 -3.4e+38 -3.4e+38 -3.4e+38 -3.4e+38 -3.4e+38 -3.4e+38 -3.4e+38 -3.4e+38 -3.4e+38 -3.4e+38 -3.4e+38 -3.4e+38 -3.4e+38 -3.4e+38 -3.4e+38 -3.4e+38 -3.4e+38 -3.4e+38 -3.4e+38 -3.4e+38 -3.4e+38 -3.4e+38 -3.4e+38 -3.4e+38 -3.4e+38 -3.4e+38 -3.4e+38 -3.4e+38 -3.4e+38 -3.4e+38 -3.4e+38 -3.4e+38 -3.4e+38 -3.4e+38 -3.4e+38 -3.4e+38 -3.4e+38 -3.4e+38 -3.4e+38 -3.4e+38 -3.4e+38 -3.4e+38 -3.4e+38 -3.4e+38 -3.4e+38 -3.4e+38 -3.4e+38 -3.4e+38 -3.4e+38 -3.4e+38 -3.4e+38 -3.4e+38 -3.4e+38 -3.4e+38 -3.4e+38 -3.4e+38 -3.4e+38 -3.4e+38 -3.4e+38 -3.4e+38 -3.4e+38 -3.4e+38 -3.4e+38 -3.4e+38 -3.4e+38 -3.4e+38 -3.4e+38 -3.4e+38 -3.4e+38 -3.4e+38 -3.4e+38 -3.4e+38 -3.4e+38 -3.4e+38 -3.4e+38 -3.4e+38 -3.4e+38
-3.4e+38 -3.4e+38 -3.4e+38 -3.4e+38 -3.4e+38 -3.4e+38 -3.4e+38 -3.4e+38 -3.4e+38 -3.4e+38 -3.4e+38 -3.4e+38 -3.4e+38 -3.4e+38 -3.4e+38 -3.4e+38 -3.4e+38 -3.4e+38 -3.4e+38 -3.4e+38 -3.4e+38 -3.4e+38 -3.4e+38 -3.4e+38 -3.4e+38 -3.4e+38 -3.4e+38 -3.4e+38 -3.4e+38 -3.4e+38 -3.4e+38 -3.4e+38 -3.4e+38 -3.4e+38 -3.4e+38 -3.4e+38 -3.4e+38 -3.4e+38 -3.4e+38 -3.4e+38 -3.4e+38 -3.4e+38 -3.4e+38 -3.4e+38 -3.4e+38 -3.4e+38 -3.4e+38 -3.4e+38 -3.4e+38 -3.4e+38 2378 2381 2383 2383 2382 2381 2380 2379 2380 2388 2393 2398 2414 2419 2419 2422 2431 2436 2442 2448 2461 2468 2475 2488 2499 2506 2520 2531 2534 2531 2525 2523 2522 2521 2519 2518 2516 2518 2522 2523 2522 2518 2517 2522 2544 2559 2561 2567 2574 2576 2575 2590 2593 2596 2599 2601 2612 2617 2622 2625 2623 2628 2643 2649 2663 2666 2669 2674 2694 2710 2747 2783 2801 2826 2843 2848 2865 2858 2847 2850 2865 2871 2866 2844 2841 2843 2848 2858 2894 2920 2930 2947 2955 2956 2944 2936 2938 2964 2980 3009 3012 3002 2970 2928 2904 2859 2818 2803 2819 2838 2850 2871 2871 2873 2897 2908 2908 2920 2955 2975 3014 3033 3037 3039 3048 3056 3071 3089 3100 3117 3114 3113 3122 3120 3125 3146 3159 3175 3180 3181 3180 3165 3146 3111 3077 3061 3046 3057 3069 3100 3122 3131 3129 3115 3115 3123 3122 3118 3112 3111 3119 3141 3142 3140 3132 3121 3118 3124 3128 3132 3142 3147 3166 3199 3219 3250 3279 3291 3306 3317 3319 3323 3337 3345 3364 3385 3396 3407 3408 3408 3404 3400 3396 3386 3374 3367 3357 3353 3351 3351 3355 3357 3355 3346 3341 3328 3320 3301 3280 3269 3251 3242 3239 3229 3219 3197 3187 3179 3174 3166 3163 3162 3156 3152 3150 3145 3141 3140 3139 3135 3134 3126 3117 3113 3103 3095 3091 3085 3082 3079 3074 3073 3074 3079 3081 3083 3081 3079 3074 3071 3070 3067 3064 3064 3065 3065 3064 3062 3062 3062 3061 3060 3059 3055 3049 3046 -3.4e+38 -3.4e+38 -3.4e+38 -3.4e+38 -3.4e+38 -3.4e+38 -3.4e+38 -3.4e+38 -3.4e+38 -3.4e+38 -3.4e+38 -3.4e+38 -3.4e+38 -3.4e+38 -3.4e+38 -3.4e+38 -3.4e+38 -3.4e+38 -3.4e+38 -3.4e+38 -3.4e+38 -3.4e+38 -3.4e+38 -3.4e+38 -3.4e+38 -3.4e+38 -3.4e+38 -3.4e+38 -3.4e+38 -3.4e+38 -3.4e+38 -3.4e+38 -3.4e+38 -3.4e+38 -3.4e+38 -3.4e+38 -3.4e+38 -3.4e+38 -3.4e+38 -3.4e+38 -3.4e+38 -3.4e+38 -3.4e+38 -3.4e+38 -3.4e+38 -3.4e+38 -3.4e+38 -3.4e+38 -3.4e+38 -3.4e+38 -3.4e+38 -3.4e+38 -3.4e+38 -3.4e+38 -3.4e+38 -3.4e+38 -3.4e+38 -3.4e+38 -3.4e+38 -3.4e+38 -3.4e+38 -3.4e+38 -3.4e+38 -3.4e+38 -3.4e+38 -3.4e+38 -3.4e+38 -3.4e+38 -3.4e+38 -3.4e+38 -3.4e+38 -3.4e+38 -3.4e+38 -3.4e+38 -3.4e+38 -3.4e+38 -3.4e+38 -3.4e+38 -3.4e+38 -3.4e+38 -3.4e+38 -3.4e+38 -3.4e+38 -3.4e+38 -3.4e+38 -3.4e+38 -3.4e+38 -3.4e+38 -3.4e+38 -3.4e+38 -3.4e+38 -3.4e+38 -3.4e+38 -3.4e+38 -3.4e+38 -3.4e+38 -3.4e+38 -3.4e+38 -3.4e+38 -3.4e+38 -3.4e+38 -3.4e+38 -3.4e+38 -3.4e+38
-3.4e+38 -3.4e+38 -3.4e+38 -3.4e+38 -3.4e+38 -3.4e+38 -3.4e+38 -3.4e+38 -3.4e+38 -3.4e+38 -3.4e+38 -3.4e+38 -3.4e+38 -3.4e+38 -3.4e+38 -3.4e+38 -3.4e+38 -3.4e+38 -3.4e+38 -3.4e+38 -3.4e+38 -3.4e+38 -3.4e+38 -3.4e+38 -3.4e+38 -3.4e+38 -3.4e+38 -3.4e+38 -3.4e+38 -3.4e+38 -3.4e+38 -3.4e+38 -3.4e+38 -3.4e+38 -3.4e+38 -3.4e+38 -3.4e+38 -3.4e+38 -3.4e+38 -3.4e+38 -3.4e+38 -3.4e+38 -3.4e+38 -3.4e+38 -3.4e+38 -3.4e+38 -3.4e+38 -3.4e+38 -3.4e+38 -3.4e+38 2375 2379 2381 2381 2378 2377 2382 2386 2396 2402 2399 2401 2411 2420 2421 2423 2431 2435 2439 2439 2451 2460 2467 2483 2493 2497 2510 2522 2522 2519 2516 2515 2512 2511 2510 2511 2513 2515 2516 2515 2512 2513 2520 2527 2543 2552 2554 2559 2568 2567 2564 2569 2575 2583 2590 2595 2608 2613 2612 2609 2605 2609 2621 2627 2638 2646 2660 2687 2710 2719 2747 2777 2792 2803 2805 2810 2829 2821 2811 2817 2821 2825 2829 2816 2821 2838 2858 2874 2912 2939 2942 2934 2926 2929 2924 2914 2923 2951 2968 2987 2971 2957 2938 2910 2891 2852 2807 2796 2801 2812 2816 2835 2855 2870 2890 2897 2901 2931 2974 2989 3013 3029 3034 3039 3043 3048 3060 3077 3087 3110 3101 3099 3096 3098 3115 3140 3149 3156 3159 3163 3170 3158 3141 3107 3077 3062 3033 3038 3053 3095 3115 3114 3106 3092 3091 3095 3099 3096 3083 3098 3111 3135 3140 3136 3111 3097 3092 3102 3119 3126 3140 3147 3169 3207 3223 3257 3286 3299 3313.5 3328 3330 3335 3345 3351 3367 3393 3404 3411 3410 3408 3403 3400 3397 3388 3379 3376 3370 3361 3361 3361 3362 3362 3357 3346 3341 3331 3324 3305 3286 3278 3260 3245 3241 3234 3220 3214 3203 3188 3178 3160 3151 3143 3138 3136 3134 3131 3128 3126 3120 3115 3112 3105 3097 3094 3089 3085 3083 3077 3071 3067 3061 3062 3063 3065 3066 3064 3059 3055 3048 3050 3051 3054 3058 3060 3064 3066 3067 3066 3064 3063 3061 3060 3059 3055 3050 -3.4e+38 -3.4e+38 -3.4e+38 -3.4e+38 -3.4e+38 -3.4e+38 -3.4e+38 -3.4e+38 -3.4e+38 -3.4e+38 -3.4e+38 -3.4e+38 -3.4e+38 -3.4e+38 -3.4e+38 -3.4e+38 -3.4e+38 -3.4e+38 -3.4e+38 -3.4e+38 -3.4e+38 -3.4e+38 -3.4e+38 -3.4e+38 -3.4e+38 -3.4e+38 -3.4e+38 -3.4e+38 -3.4e+38 -3.4e+38 -3.4e+38 -3.4e+38 -3.4e+38 -3.4e+38 -3.4e+38 -3.4e+38 -3.4e+38 -3.4e+38 -3.4e+38 -3.4e+38 -3.4e+38 -3.4e+38 -3.4e+38 -3.4e+38 -3.4e+38 -3.4e+38 -3.4e+38 -3.4e+38 -3.4e+38 -3.4e+38 -3.4e+38 -3.4e+38 -3.4e+38 -3.4e+38 -3.4e+38 -3.4e+38 -3.4e+38 -3.4e+38 -3.4e+38 -3.4e+38 -3.4e+38 -3.4e+38 -3.4e+38 -3.4e+38 -3.4e+38 -3.4e+38 -3.4e+38 -3.4e+38 -3.4e+38 -3.4e+38 -3.4e+38 -3.4e+38 -3.4e+38 -3.4e+38 -3.4e+38 -3.4e+38 -3.4e+38 -3.4e+38 -3.4e+38 -3.4e+38 -3.4e+38 -3.4e+38 -3.4e+38 -3.4e+38 -3.4e+38 -3.4e+38 -3.4e+38 -3.4e+38 -3.4e+38 -3.4e+38 -3.4e+38 -3.4e+38 -3.4e+38 -3.4e+38 -3.4e+38 -3.4e+38 -3.4e+38 -3.4e+38 -3.4e+38 -3.4e+38 -3.4e+38 -3.4e+38 -3.4e+38 -3.4e+38 -3.4e+38
-3.4e+38 -3.4e+38 -3.4e+38 -3.4e+38 -3.4e+38 -3.4e+38 -3.4e+38 -3.4e+38 -3.4e+38 -3.4e+38 -3.4e+38 -3.4e+38 -3.4e+38 -3.4e+38 -3.4e+38 -3.4e+38 -3.4e+38 -3.4e+38 -3.4e+38 -3.4e+38 -3.4e+38 -3.4e+38 -3.4e+38 -3.4e+38 -3.4e+38 -3.4e+38 -3.4e+38 -3.4e+38 -3.4e+38 -3.4e+38 -3.4e+38 -3.4e+38 -3.4e+38 -3.4e+38 -3.4e+38 -3.4e+38 -3.4e+38 -3.4e+38 -3.4e+38 -3.4e+38 -3.4e+38 -3.4e+38 -3.4e+38 -3.4e+38 -3.4e+38 -3.4e+38 -3.4e+38 -3.4e+38 -3.4e+38 -3.4e+38 2370 2370 2372 2375 2378 2385 2399 2399 2399 2405 2405 2406 2410 2422 2425 2431 2436 2438 2438 2438 2449 2461 2466 2478 2490 2495 2504 2513 2513 2511 2508 2507 2504 2500 2500 2505 2506 2505 2501 2502 2514 2520 2524 2528 2538 2547 2549 2550 2549 2544 2543 2551 2556 2566 2570 2573 2582 2582 2579 2591 2600 2615 2619 2625 2639 2647 2658 2680 2698 2710 2734 2749 2753 2757 2777 2792 2812 2788 2774 2769 2777 2784 2805 2826 2839 2871 2893 2904 2926 2940 2937 2914 2887 2890 2895 2887 2915 2942 2958 2971 2944 2926 2903 2876 2860 2823 2790 2781 2819 2839 2841 2842 2869 2883 2899 2904 2909 2939 2975 2984 2998 3020 3028 3037 3039 3041 3056 3070 3078 3088 3076 3076 3081 3088 3109 3130 3140 3142 3136 3142 3155 3147 3136 3116 3086 3068 3015 3021 3035 3073 3100 3099 3084 3067 3066 3075 3085 3082 3074 3092 3105 3127 3128 3106 3083 3073 3076 3102 3119 3124 3140 3151 3178 3206 3220 3258 3286 3301 3330 3336.5263671875 3343 3344 3350 3355 3373 3394 3401 3407 3408 3406 3400 3397 3395 3388 3383 3382 3379 3363 3361 3358 3357 3355 3347 3338 3334 3322 3314 3295 3285 3279 3263 3250 3244 3236 3224 3219 3204 3188 3179 3170 3168 3165 3152 3135 3122 3119 3114 3109 3101 3095 3092 3089 3088 3086 3080 3075 3071 3063 3060 3058 3054 3052 3050 3047 3047 3048 3045 3043 3038 3037 3036 3037 3044 3051 3062 3067 3068 3068 3066 3065 3061 3059 3058 3055 -3.4e+38 -3.4e+38 -3.4e+38 -3.4e+38 -3.4e+38 -3.4e+38 -3.4e+38 -3.4e+38 -3.4e+38 -3.4e+38 -3.4e+38 -3.4e+38 -3.4e+38 -3.4e+38 -3.4e+38 -3.4e+38 -3.4e+38 -3.4e+38 -3.4e+38 -3.4e+38 -3.4e+38 -3.4e+38 -3.4e+38 -3.4e+38 -3.4e+38 -3.4e+38 -3.4e+38 -3.4e+38 -3.4e+38 -3.4e+38 -3.4e+38 -3.4e+38 -3.4e+38 -3.4e+38 -3.4e+38 -3.4e+38 -3.4e+38 -3.4e+38 -3.4e+38 -3.4e+38 -3.4e+38 -3.4e+38 -3.4e+38 -3.4e+38 -3.4e+38 -3.4e+38 -3.4e+38 -3.4e+38 -3.4e+38 -3.4e+38 -3.4e+38 -3.4e+38 -3.4e+38 -3.4e+38 -3.4e+38 -3.4e+38 -3.4e+38 -3.4e+38 -3.4e+38 -3.4e+38 -3.4e+38 -3.4e+38 -3.4e+38 -3.4e+38 -3.4e+38 -3.4e+38 -3.4e+38 -3.4e+38 -3.4e+38 -3.4e+38 -3.4e+38 -3.4e+38 -3.4e+38 -3.4e+38 -3.4e+38 -3.4e+38 -3.4e+38 -3.4e+38 -3.4e+38 -3.4e+38 -3.4e+38 -3.4e+38 -3.4e+38 -3.4e+38 -3.4e+38 -3.4e+38 -3.4e+38 -3.4e+38 -3.4e+38 -3.4e+38 -3.4e+38 -3.4e+38 -3.4e+38 -3.4e+38 -3.4e+38 -3.4e+38 -3.4e+38 -3.4e+38 -3.4e+38 -3.4e+38 -3.4e+38 -3.4e+38 -3.4e+38 -3.4e+38 -3.4e+38 -3.4e+38
-3.4e+38 -3.4e+38 -3.4e+38 -3.4e+38 -3.4e+38 -3.4e+38 -3.4e+38 -3.4e+38 -3.4e+38 -3.4e+38 -3.4e+38 -3.4e+38 -3.4e+38 -3.4e+38 -3.4e+38 -3.4e+38 -3.4e+38 -3.4e+38 -3.4e+38 -3.4e+38 -3.4e+38 -3.4e+38 -3.4e+38 -3.4e+38 -3.4e+38 -3.4e+38 -3.4e+38 -3.4e+38 -3.4e+38 -3.4e+38 -3.4e+38 -3.4e+38 -3.4e+38 -3.4e+38 -3.4e+38 -3.4e+38 -3.4e+38 -3.4e+38 -3.4e+38 -3.4e+38 -3.4e+38 -3.4e+38 -3.4e+38 -3.4e+38 -3.4e+38 -3.4e+38 -3.4e+38 -3.4e+38 -3.4e+38 -3.4e+38 2367 2371 2373 2377 2383 2393 2404 2403 2403 2409 2413 2414 2416 2420 2425 2435 2439 2440 2440 2439 2449 2461 2466 2479 2492 2497 2503 2508 2508 2506 2504 2503 2501 2498 2500 2504 2502 2500 2497 2505 2519 2523 2524 2527 2538 2543 2544 2540 2539 2537 2540 2546 2548 2555 2560 2565 2571 2578 2587 2603 2612 2620 2620 2626 2641 2652 2659 2675 2691 2703 2718 2731 2737 2747 2778 2795 2804 2778 2748 2749 2772 2785 2812 2840 2851 2883 2907 2916 2934 2938 2929 2905 2877 2869 2877 2875 2911 2938 2952 2965 2940 2921 2889 2860 2844 2804 2774 2778 2820 2843 2852 2855 2871 2880 2889 2901 2908 2935 2967 2977 2992 3016 3025 3036 3039 3041 3050 3061 3067 3078 3067 3067 3076 3086 3108 3124 3132 3131 3126 3134 3145 3137 3129 3111 3082 3064 3011 3011 3024 3054 3084 3087 3075 3058 3054 3061 3075 3071 3072 3092 3102 3122 3118 3092 3069 3065 3072 3101 3117 3123 3140 3152 3180 3208 3221 3259 3287 3301 3334 3337.33325195312 3347 3348 3352 3357 3378 3394 3399 3404 3405 3403 3398 3392 3390 3386 3382 3381 3375 3359 3356 3351 3348 3346 3340 3333 3328 3311 3301 3295 3282 3276 3263 3250 3244 3235 3222 3217 3200 3189 3182 3181 3180 3178 3166 3148 3137 3122 3108 3103 3096 3090 3087 3082 3083 3082 3074 3067 3064 3057 3055 3053 3050 3048 3045 3041 3040 3042 3040 3039 3034 3032 3031 3032 3040 3046 3059 3066 3067 3068 3067 3065 3061 3059 3058 -3.4e+38 -3.4e+38 -3.4e+38 -3.4e+38 -3.4e+38 -3.4e+38 -3.4e+38 -3.4e+38 -3.4e+38 -3.4e+38 -3.4e+38 -3.4e+38 -3.4e+38 -3.4e+38 -3.4e+38 -3.4e+38 -3.4e+38 -3.4e+38 -3.4e+38 -3.4e+38 -3.4e+38 -3.4e+38 -3.4e+38 -3.4e+38 -3.4e+38 -3.4e+38 -3.4e+38 -3.4e+38 -3.4e+38 -3.4e+38 -3.4e+38 -3.4e+38 -3.4e+38 -3.4e+38 -3.4e+38 -3.4e+38 -3.4e+38 -3.4e+38 -3.4e+38 -3.4e+38 -3.4e+38 -3.4e+38 -3.4e+38 -3.4e+38 -3.4e+38 -3.4e+38 -3.4e+38 -3.4e+38 -3.4e+38 -3.4e+38 -3.4e+38 -3.4e+38 -3.4e+38 -3.4e+38 -3.4e+38 -3.4e+38 -3.4e+38 -3.4e+38 -3.4e+38 -3.4e+38 -3.4e+38 -3.4e+38 -3.4e+38 -3.4e+38 -3.4e+38 -3.4e+38 -3.4e+38 -3.4e+38 -3.4e+38 -3.4e+38 -3.4e+38 -3.4e+38 -3.4e+38 -3.4e+38 -3.4e+38 -3.4e+38 -3.4e+38 -3.4e+38 -3.4e+38 -3.4e+38 -3.4e+38 -3.4e+38 -3.4e+38 -3.4e+38 -3.4e+38 -3.4e+38 -3.4e+38 -3.4e+38 -3.4e+38 -3.4e+38 -3.4e+38 -3.4e+38 -3.4e+38 -3.4e+38 -3.4e+38 -3.4e+38 -3.4e+38 -3.4e+38 -3.4e+38 -3.4e+38 -3.4e+38 -3.4e+38 -3.4e+38 -3.4e+38 -3.4e+38 -3.4e+38 -3.4e+38
-3.4e+38 -3.4e+38 -3.4e+38 -3.4e+38 -3.4e+38 -3.4e+38 -3.4e+38 -3.4e+38 -3.4e+38 -3.4e+38 -3.4e+38 -3.4e+38 -3.4e+38 -3.4e+38 -3.4e+38 -3.4e+38 -3.4e+38 -3.4e+38 -3.4e+38 -3.4e+38 -3.4e+38 -3.4e+38 -3.4e+38 -3.4e+38 -3.4e+38 -3.4e+38 -3.4e+38 -3.4e+38 -3.4e+38 -3.4e+38 -3.4e+38 -3.4e+38 -3.4e+38 -3.4e+38 -3.4e+38 -3.4e+38 -3.4e+38 -3.4e+38 -3.4e+38 -3.4e+38 -3.4e+38 -3.4e+38 -3.4e+38 -3.4e+38 -3.4e+38 -3.4e+38 -3.4e+38 -3.4e+38 -3.4e+38 -3.4e+38 2365 2375 2382 2399 2399 2398 2405 2416 2419 2418 2419 2420 2423 2421 2425 2437 2444 2448 2456 2458 2459 2469 2479 2490 2501 2501 2502 2501 2501 2500 2498 2497 2494 2494 2498 2494 2489 2492 2499 2510 2518 2523 2523 2525 2532 2532 2529 2520 2520 2520 2526 2533 2534 2545 2565 2576 2586 2594 2605 2614 2619 2625 2632 2636 2639 2652 2662 2675 2680 2689 2705 2720 2726 2755 2794 2809 2800 2765 2729 2743 2767 2784 2831 2869 2877 2891 2919 2932 2959 2934 2915 2883 2858 2840 2837 2851 2886 2926 2937 2942 2928 2915 2879 2838 2821 2789 2758 2767 2804 2811 2816 2824 2844 2850 2867 2891 2901 2920 2947 2956 2978 3013 3023 3033 3033 3033 3037 3043 3047 3058 3048 3050 3069 3087 3115 3121 3121 3115 3110 3115 3120 3116 3110 3093 3076 3062 3017 2991 3001 3021 3047 3053 3050 3035 3033 3041 3041 3044 3072 3098 3104 3108 3089 3064 3047 3060 3073 3104 3118 3125 3145 3156 3186 3215 3229 3270 3288 3294 3317 3341 3340.10522460938 3348 3354 3360 3379 3391 3393 3393 3390 3387 3380 3375 3375 3375 3371 3368 3357 3342 3338 3330 3327 3326 3324 3325 3318 3298 3289 3278 3268 3264 3256 3243 3238 3228 3218 3213 3201 3202 3202 3203 3197 3192 3182 3171 3164 3152 3141 3134 3118 3105 3100 3080 3066 3063 3058 3054 3053 3047 3042 3042 3042 3040 3039 3029 3026 3026 3024 3023 3023 3023 3022 3022 3029 3035 3050 3061 3064 3068 3067 3065 3060 3058 3057 -3.4e+38 -3.4e+38 -3.4e+38 -3.4e+38 -3.4e+38 -3.4e+38 -3.4e+38 -3.4e+38 -3.4e+38 -3.4e+38 -3.4e+38 -3.4e+38 -3.4e+38 -3.4e+38 -3.4e+38 -3.4e+38 -3.4e+38 -3.4e+38 -3.4e+38 -3.4e+38 -3.4e+38 -3.4e+38 -3.4e+38 -3.4e+38 -3.4e+38 -3.4e+38 -3.4e+38 -3.4e+38 -3.4e+38 -3.4e+38 -3.4e+38 -3.4e+38 -3.4e+38 -3.4e+38 -3.4e+38 -3.4e+38 -3.4e+38 -3.4e+38 -3.4e+38 -3.4e+38 -3.4e+38 -3.4e+38 -3.4e+38 -3.4e+38 -3.4e+38 -3.4e+38 -3.4e+38 -3.4e+38 -3.4e+38 -3.4e+38 -3.4e+38 -3.4e+38 -3.4e+38 -3.4e+38 -3.4e+38 -3.4e+38 -3.4e+38 -3.4e+38 -3.4e+38 -3.4e+38 -3.4e+38 -3.4e+38 -3.4e+38 -3.4e+38 -3.4e+38 -3.4e+38 -3.4e+38 -3.4e+38 -3.4e+38 -3.4e+38 -3.4e+38 -3.4e+38 -3.4e+38 -3.4e+38 -3.4e+38 -3.4e+38 -3.4e+38 -3.4e+38 -3.4e+38 -3.4e+38 -3.4e+38 -3.4e+38 -3.4e+38 -3.4e+38 -3.4e+38 -3.4e+38 -3.4e+38 -3.4e+38 -3.4e+38 -3.4e+38 -3.4e+38 -3.4e+38 -3.4e+38 -3.4e+38 -3.4e+38 -3.4e+38 -3.4e+38 -3.4e+38 -3.4e+38 -3.4e+38 -3.4e+38 -3.4e+38 -3.4e+38 -3.4e+38 -3.4e+38 -3.4e+38 -3.4e+38
-3.4e+38 -3.4e+38 -3.4e+38 -3.4e+38 -3.4e+38 -3.4e+38 -3.4e+38 -3.4e+38 -3.4e+38 -3.4e+38 -3.4e+38 -3.4e+38 -3.4e+38 -3.4e+38 -3.4e+38 -3.4e+38 -3.4e+38 -3.4e+38 -3.4e+38 -3.4e+38 -3.4e+38 -3.4e+38 -3.4e+38 -3.4e+38 -3.4e+38 -3.4e+38 -3.4e+38 -3.4e+38 -3.4e+38 -3.4e+38 -3.4e+38 -3.4e+38 -3.4e+38 -3.4e+38 -3.4e+38 -3.4e+38 -3.4e+38 -3.4e+38 -3.4e+38 -3.4e+38 -3.4e+38 -3.4e+38 -3.4e+38 -3.4e+38 -3.4e+38 -3.4e+38 -3.4e+38 -3.4e+38 -3.4e+38 2361 2365 2381 2391 2410 2408 2405 2409 2418 2421 2420 2419 2420 2424 2425 2426 2437 2445 2449 2460 2463 2467 2479 2487 2496 2502 2502 2501 2499 2498 2497 2494 2493 2488 2484 2484 2481 2494 2498 2502 2510 2518 2521 2521 2522 2527 2525 2522 2514 2514 2515 2519 2527 2530 2542 2566 2578 2587 2594 2602 2607 2614 2628 2638 2640 2640 2650 2659 2670 2681 2692 2713 2725 2732 2768 2811 2820 2795 2756 2718 2737 2762 2781 2828 2869 2878 2891 2915 2930 2958 2927 2906 2870 2849 2830 2816 2830 2868 2918 2928 2927 2915 2907 2880 2837 2819 2785 2754 2765 2789 2790 2794 2804 2826 2834 2859 2887 2899 2915 2936 2956 2978 3006 3016 3027 3025 3024 3027 3035 3039 3045 3040 3041 3069 3088 3118 3123 3121 3111 3103 3105 3109 3106 3102 3083 3077 3067 3023 2990 2989 3006 3033 3042 3039 3021 3022 3031 3028 3039 3075 3100 3104 3098 3076 3050 3044 3063 3078 3109 3122 3131 3149 3159 3192 3220 3236 3275 3281 3280 3298 3328 3332.63159179688 3343 3353 3360 3380 3388 3387 3385 3379 3375 3368 3365 3365 3365 3361 3359 3351 3336 3329 3320 3313 3312 3324 3315 3307 3287 3279 3269 3260 3257 3249 3236 3231 3223 3216 3212 3204 3204 3204 3202 3197 3192 3183 3177 3171 3160 3149 3143 3127 3114 3109 3089 3069 3060 3053 3048 3046 3042 3038 3037 3036 3034 3032 3021 3020 3020 3018 3017 3019 3019 3019 3018 3022 3029 3043 3058 3061 3067 3067 3065 3061 3058 -3.4e+38 -3.4e+38 -3.4e+38 -3.4e+38 -3.4e+38 -3.4e+38 -3.4e+38 -3.4e+38 -3.4e+38 -3.4e+38 -3.4e+38 -3.4e+38 -3.4e+38 -3.4e+38 -3.4e+38 -3.4e+38 -3.4e+38 -3.4e+38 -3.4e+38 -3.4e+38 -3.4e+38 -3.4e+38 -3.4e+38 -3.4e+38 -3.4e+38 -3.4e+38 -3.4e+38 -3.4e+38 -3.4e+38 -3.4e+38 -3.4e+38 -3.4e+38 -3.4e+38 -3.4e+38 -3.4e+38 -3.4e+38 -3.4e+38 -3.4e+38 -3.4e+38 -3.4e+38 -3.4e+38 -3.4e+38 -3.4e+38 -3.4e+38 -3.4e+38 -3.4e+38 -3.4e+38 -3.4e+38 -3.4e+38 -3.4e+38 -3.4e+38 -3.4e+38 -3.4e+38 -3.4e+38 -3.4e+38 -3.4e+38 -3.4e+38 -3.4e+38 -3.4e+38 -3.4e+38 -3.4e+38 -3.4e+38 -3.4e+38 -3.4e+38 -3.4e+38 -3.4e+38 -3.4e+38 -3.4e+38 -3.4e+38 -3.4e+38 -3.4e+38 -3.4e+38 -3.4e+38 -3.4e+38 -3.4e+38 -3.4e+38 -3.4e+38 -3.4e+38 -3.4e+38 -3.4e+38 -3.4e+38 -3.4e+38 -3.4e+38 -3.4e+38 -3.4e+38 -3.4e+38 -3.4e+38 -3.4e+38 -3.4e+38 -3.4e+38 -3.4e+38 -3.4e+38 -3.4e+38 -3.4e+38 -3.4e+38 -3.4e+38 -3.4e+38 -3.4e+38 -3.4e+38 -3.4e+38 -3.4e+38 -3.4e+38 -3.4e+38 -3.4e+38 -3.4e+38 -3.4e+38 -3.4e+38 -3.4e+38
-3.4e+38 -3.4e+38 -3.4e+38 -3.4e+38 -3.4e+38 -3.4e+38 -3.4e+38 -3.4e+38 -3.4e+38 -3.4e+38 -3.4e+38 -3.4e+38 -3.4e+38 -3.4e+38 -3.4e+38 -3.4e+38 -3.4e+38 -3.4e+38 -3.4e+38 -3.4e+38 -3.4e+38 -3.4e+38 -3.4e+38 -3.4e+38 -3.4e+38 -3.4e+38 -3.4e+38 -3.4e+38 -3.4e+38 -3.4e+38 -3.4e+38 -3.4e+38 -3.4e+38 -3.4e+38 -3.4e+38 -3.4e+38 -3.4e+38 -3.4e+38 -3.4e+38 -3.4e+38 -3.4e+38 -3.4e+38 -3.4e+38 -3.4e+38 -3.4e+38 -3.4e+38 -3.4e+38 -3.4e+38 2361 2364 2374 2393 2404 2420 2425 2425 2420 2421 2423 2419 2420 2423 2431 2436 2437 2437 2444 2449 2459 2464 2473 2487 2497 2503 2503 2503 2500 2493 2491 2488 2486 2483 2480 2476 2476 2496 2501 2502 2504 2509 2512 2516 2518 2519 2522 2517 2512 2505 2507 2515 2535 2559 2565 2564 2565 2572 2576 2580 2593 2610 2620 2642 2648 2648 2646 2653 2659 2678 2707 2717 2738 2754 2766 2801 2821 2811 2771 2720 2710 2732 2767 2785 2822 2835 2840 2857 2894 2913 2926 2903 2888 2846 2819 2809 2781 2794 2837 2897 2907 2890 2871 2871 2874 2838 2817 2774 2744 2752 2759 2776 2788 2803 2820 2823 2841 2869 2895 2910 2924 2934 2954 2973 2983 2996 3001 3007 3015 3021 3025 3025 3036 3043 3069 3085 3114 3124 3122 3106 3090 3088 3092 3099 3098 3076 3060 3062 3033 2993 2978 2985 3014 3023 3014 2999 3008 3010 3022 3042 3076 3092 3090 3073 3030 3022 3043 3069 3088 3118 3135 3142 3156 3165 3192 3218 3225 3236 3246 3252 3274 3308 3322 3322 3350 3360 3378 3378 3373 3365 3357 3355 3350 3344 3343 3340 3340 3339 3338 3319 3311 3309 3301 3300 3298 3294 3289 3271 3263 3253 3245 3240 3226 3215 3213 3210 3208 3206 3203 3200 3197 3188 3183 3182 3182 3179 3172 3162 3149 3142 3129 3116 3109 3093 3080 3071 3059 3042 3039 3037 3038 3038 3040 3040 3039 3029 3024 3020 3018 3015 3010 3008 3008 3011 3017 3021 3029 3046 3055 3065 3066 3064 3060 -3.4e+38 -3.4e+38 -3.4e+38 -3.4e+38 -3.4e+38 -3.4e+38 -3.4e+38 -3.4e+38 -3.4e+38 -3.4e+38 -3.4e+38 -3.4e+38 -3.4e+38 -3.4e+38 -3.4e+38 -3.4e+38 -3.4e+38 -3.4e+38 -3.4e+38 -3.4e+38 -3.4e+38 -3.4e+38 -3.4e+38 -3.4e+38 -3.4e+38 -3.4e+38 -3.4e+38 -3.4e+38 -3.4e+38 -3.4e+38 -3.4e+38 -3.4e+38 -3.4e+38 -3.4e+38 -3.4e+38 -3.4e+38 -3.4e+38 -3.4e+38 -3.4e+38 -3.4e+38 -3.4e+38 -3.4e+38 -3.4e+38 -3.4e+38 -3.4e+38 -3.4e+38 -3.4e+38 -3.4e+38 -3.4e+38 -3.4e+38 -3.4e+38 -3.4e+38 -3.4e+38 -3.4e+38 -3.4e+38 -3.4e+38 -3.4e+38 -3.4e+38 -3.4e+38 -3.4e+38 -3.4e+38 -3.4e+38 -3.4e+38 -3.4e+38 -3.4e+38 -3.4e+38 -3.4e+38 -3.4e+38 -3.4e+38 -3.4e+38 -3.4e+38 -3.4e+38 -3.4e+38 -3.4e+38 -3.4e+38 -3.4e+38 -3.4e+38 -3.4e+38 -3.4e+38 -3.4e+38 -3.4e+38 -3.4e+38 -3.4e+38 -3.4e+38 -3.4e+38 -3.4e+38 -3.4e+38 -3.4e+38 -3.4e+38 -3.4e+38 -3.4e+38 -3.4e+38 -3.4e+38 -3.4e+38 -3.4e+38 -3.4e+38 -3.4e+38 -3.4e+38 -3.4e+38 -3.4e+38 -3.4e+38 -3.4e+38 -3.4e+38 -3.4e+38 -3.4e+38 -3.4e+38 -3.4e+38 -3.4e+38 -3.4e+38
-3.4e+38 -3.4e+38 -3.4e+38 -3.4e+38 -3.4e+38 -3.4e+38 -3.4e+38 -3.4e+38 -3.4e+38 -3.4e+38 -3.4e+38 -3.4e+38 -3.4e+38 -3.4e+38 -3.4e+38 -3.4e+38 -3.4e+38 -3.4e+38 -3.4e+38 -3.4e+38 -3.4e+38 -3.4e+38 -3.4e+38 -3.4e+38 -3.4e+38 -3.4e+38 -3.4e+38 -3.4e+38 -3.4e+38 -3.4e+38 -3.4e+38 -3.4e+38 -3.4e+38 -3.4e+38 -3.4e+38 -3.4e+38 -3.4e+38 -3.4e+38 -3.4e+38 -3.4e+38 -3.4e+38 -3.4e+38 -3.4e+38 -3.4e+38 -3.4e+38 -3.4e+38 -3.4e+38 2356 2366 2371 2381 2393 2402 2423 2430 2431 2432 2435 2436 2436 2439 2439 2441 2446 2449 2454 2455 2456 2462 2467 2475 2493 2501 2505 2503 2502 2494 2485 2482 2479 2479 2476 2472 2473 2477 2499 2504 2504 2504 2506 2508 2511 2514 2517 2517 2507 2500 2505 2524 2539 2566 2583 2588 2592 2599 2602 2602 2604 2617 2634 2644 2671 2673 2672 2674 2671 2672 2692 2729 2745 2771 2799 2812 2823 2806 2785 2752 2706 2699 2726 2756 2768 2785 2793 2801 2829 2874 2888 2882 2851 2840 2819 2785 2773 2761 2778 2821 2864 2869 2850 2831 2836 2836 2810 2793 2755 2735 2744 2778 2808 2823 2846 2857 2839 2840 2862 2876 2893 2904 2912 2928 2938 2944 2962 2982 2987 2992 3003 3011 3020 3035 3043 3061 3076 3099 3109 3109 3098 3083 3075 3079 3094 3097 3078 3045 3038 3028 2998 2979 2972 3000 3008 3003 2991 2997 2984 3013 3035 3060 3062 3058 3038 3010 3015 3042 3071 3093 3120 3142 3151 3168 3175 3179 3183 3188 3199 3218 3234 3257 3289 3306 3326 3355 3361 3363 3359 3355 3345 3346 3344 3341 3336 3333 3327 3321 3320 3323 3308 3300 3292 3288 3286 3282 3273 3266 3255 3249 3239 3227 3220 3210 3202 3200 3197 3196 3195 3190 3183 3179 3174 3173 3174 3173 3164 3158 3150 3140 3135 3122 3107 3095 3087 3072 3065 3057 3045 3046 3051 3063 3065 3069 3073 3073 3065 3059 3051 3046 3041 3015 2999 3000 3002 3008 3012 3020 3040 3051 3062 3061 3057 -3.4e+38 -3.4e+38 -3.4e+38 -3.4e+38 -3.4e+38 -3.4e+38 -3.4e+38 -3.4e+38 -3.4e+38 -3.4e+38 -3.4e+38 -3.4e+38 -3.4e+38 -3.4e+38 -3.4e+38 -3.4e+38 -3.4e+38 -3.4e+38 -3.4e+38 -3.4e+38 -3.4e+38 -3.4e+38 -3.4e+38 -3.4e+38 -3.4e+38 -3.4e+38 -3.4e+38 -3.4e+38 -3.4e+38 -3.4e+38 -3.4e+38 -3.4e+38 -3.4e+38 -3.4e+38 -3.4e+38 -3.4e+38 -3.4e+38 -3.4e+38 -3.4e+38 -3.4e+38 -3.4e+38 -3.4e+38 -3.4e+38 -3.4e+38 -3.4e+38 -3.4e+38 -3.4e+38 -3.4e+38 -3.4e+38 -3.4e+38 -3.4e+38 -3.4e+38 -3.4e+38 -3.4e+38 -3.4e+38 -3.4e+38 -3.4e+38 -3.4e+38 -3.4e+38 -3.4e+38 -3.4e+38 -3.4e+38 -3.4e+38 -3.4e+38 -3.4e+38 -3.4e+38 -3.4e+38 -3.4e+38 -3.4e+38 -3.4e+38 -3.4e+38 -3.4e+38 -3.4e+38 -3.4e+38 -3.4e+38 -3.4e+38 -3.4e+38 -3.4e+38 -3.4e+38 -3.4e+38 -3.4e+38 -3.4e+38 -3.4e+38 -3.4e+38 -3.4e+38 -3.4e+38 -3.4e+38 -3.4e+38 -3.4e+38 -3.4e+38 -3.4e+38 -3.4e+38 -3.4e+38 -3.4e+38 -3.4e+38 -3.4e+38 -3.4e+38 -3.4e+38 -3.4e+38 -3.4e+38 -3.4e+38 -3.4e+38 -3.4e+38 -3.4e+38 -3.4e+38 -3.4e+38 -3.4e+38 -3.4e+38 -3.4e+38 -3.4e+38
-3.4e+38 -3.4e+38 -3.4e+38 -3.4e+38 -3.4e+38 -3.4e+38 -3.4e+38 -3.4e+38 -3.4e+38 -3.4e+38 -3.4e+38 -3.4e+38 -3.4e+38 -3.4e+38 -3.4e+38 -3.4e+38 -3.4e+38 -3.4e+38 -3.4e+38 -3.4e+38 -3.4e+38 -3.4e+38 -3.4e+38 -3.4e+38 -3.4e+38 -3.4e+38 -3.4e+38 -3.4e+38 -3.4e+38 -3.4e+38 -3.4e+38 -3.4e+38 -3.4e+38 -3.4e+38 -3.4e+38 -3.4e+38 -3.4e+38 -3.4e+38 -3.4e+38 -3.4e+38 -3.4e+38 -3.4e+38 -3.4e+38 -3.4e+38 -3.4e+38 -3.4e+38 -3.4e+38 2359 2373 2378 2388 2396 2407 2425 2430 2433 2436 2440 2442 2444 2447 2446 2446 2452 2455 2461 2463 2464 2469 2473 2479 2495 2501 2504 2502 2500 2491 2481 2478 2475 2473 2471 2472 2473 2480 2499 2501 2502 2503 2504 2505 2508 2511 2514 2511 2500 2493 2507 2534 2547 2569 2583 2590 2600 2614 2619 2622 2623 2633 2650 2668 2686 2688 2690 2694 2691 2689 2701 2740 2758 2789 2817 2823 2816 2791 2775 2745 2701 2696 2720 2740 2747 2758 2770 2787 2822 2864 2873 2858 2826 2814 2800 2769 2756 2759 2779 2820 2846 2847 2830 2812 2820 2815 2788 2773 2739 2738 2752 2793 2823 2835 2846 2857 2859 2859 2856 2864 2882 2894 2900 2915 2927 2934 2947 2970 2975 2980 2994 3005 3019 3035 3043 3058 3069 3087 3100 3101 3094 3080 3073 3073 3087 3090 3074 3044 3026 3019 2995 2977 2964 2996 3004 3000 2979 2981 2977 3009 3027 3047 3048 3042 3021 3001 3013 3040 3072 3095 3120 3145 3155 3176 3178 3167 3165 3171 3188 3209 3223 3249 3295 3305.04541015625 3327 3357 3361 3358 3352 3348 3341 3341 3340 3337 3332 3329 3322 3321 3320 3313 3299 3293 3285 3280 3277 3268 3259 3254 3246 3242 3232 3221 3216 3206 3200 3198 3191 3190 3188 3180 3175 3172 3170 3171 3172 3170 3160 3154 3144 3137 3132 3118 3102 3091 3082 3066 3060 3053 3054 3059 3069 3078 3079 3083 3089 3090 3082 3076 3068 3065 3053 3030 3001 2999 2999 3005 3008 3017 3039 3050 3059 3055 3049 -3.4e+38 -3.4e+38 -3.4e+38 -3.4e+38 -3.4e+38 -3.4e+38 -3.4e+38 -3.4e+38 -3.4e+38 -3.4e+38 -3.4e+38 -3.4e+38 -3.4e+38 -3.4e+38 -3.4e+38 -3.4e+38 -3.4e+38 -3.4e+38 -3.4e+38 -3.4e+38 -3.4e+38 -3.4e+38 -3.4e+38 -3.4e+38 -3.4e+38 -3.4e+38 -3.4e+38 -3.4e+38 -3.4e+38 -3.4e+38 -3.4e+38 -3.4e+38 -3.4e+38 -3.4e+38 -3.4e+38 -3.4e+38 -3.4e+38 -3.4e+38 -3.4e+38 -3.4e+38 -3.4e+38 -3.4e+38 -3.4e+38 -3.4e+38 -3.4e+38 -3.4e+38 -3.4e+38 -3.4e+38 -3.4e+38 -3.4e+38 -3.4e+38 -3.4e+38 -3.4e+38 -3.4e+38 -3.4e+38 -3.4e+38 -3.4e+38 -3.4e+38 -3.4e+38 -3.4e+38 -3.4e+38 -3.4e+38 -3.4e+38 -3.4e+38 -3.4e+38 -3.4e+38 -3.4e+38 -3.4e+38 -3.4e+38 -3.4e+38 -3.4e+38 -3.4e+38 -3.4e+38 -3.4e+38 -3.4e+38 -3.4e+38 -3.4e+38 -3.4e+38 -3.4e+38 -3.4e+38 -3.4e+38 -3.4e+38 -3.4e+38 -3.4e+38 -3.4e+38 -3.4e+38 -3.4e+38 -3.4e+38 -3.4e+38 -3.4e+38 -3.4e+38 -3.4e+38 -3.4e+38 -3.4e+38 -3.4e+38 -3.4e+38 -3.4e+38 -3.4e+38 -3.4e+38 -3.4e+38 -3.4e+38 -3.4e+38 -3.4e+38 -3.4e+38 -3.4e+38 -3.4e+38 -3.4e+38 -3.4e+38 -3.4e+38 -3.4e+38
-3.4e+38 -3.4e+38 -3.4e+38 -3.4e+38 -3.4e+38 -3.4e+38 -3.4e+38 -3.4e+38 -3.4e+38 -3.4e+38 -3.4e+38 -3.4e+38 -3.4e+38 -3.4e+38 -3.4e+38 -3.4e+38 -3.4e+38 -3.4e+38 -3.4e+38 -3.4e+38 -3.4e+38 -3.4e+38 -3.4e+38 -3.4e+38 -3.4e+38 -3.4e+38 -3.4e+38 -3.4e+38 -3.4e+38 -3.4e+38 -3.4e+38 -3.4e+38 -3.4e+38 -3.4e+38 -3.4e+38 -3.4e+38 -3.4e+38 -3.4e+38 -3.4e+38 -3.4e+38 -3.4e+38 -3.4e+38 -3.4e+38 -3.4e+38 -3.4e+38 -3.4e+38 2355 2374 2393 2399 2407 2418 2422 2421 2428 2432 2438 2442 2445 2451 2453 2454 2455 2459 2460 2468 2475 2478 2482 2483 2486 2495 2499 2501 2500 2498 2483 2475 2471 2470 2467 2464 2462 2479 2486 2494 2496 2498 2500 2499 2499 2501 2506 2508 2499 2485 2489 2508 2541 2550 2563 2575 2582 2598 2614 2619 2626 2628 2639 2658 2678 2698 2712 2719 2725 2723 2724 2734 2759 2777 2810 2817 2809 2775 2750 2741 2729 2692 2690 2702 2712 2717 2725 2738 2752 2788 2829 2839 2816 2788 2775 2761 2744 2733 2761 2784 2811 2802 2799 2781 2778 2788 2775 2742 2729 2721 2752 2768 2802 2831 2841 2873 2891 2898 2903 2891 2886 2890 2906 2912 2930 2943 2942 2951 2976 2984 3001 3018 3027 3027 3035 3042 3055 3065 3086 3100 3097 3084 3073 3064 3060 3080 3082 3066 3039 3020 2998 2990 2976 2947 2987 2996 2987 2960 2958 2977 3009 3019 3026 3027 3019 2993 2999 3013 3039 3070 3089 3115 3140 3157 3173 3161 3138 3149 3164 3197 3219 3232 3260 3304 3316 3333 3361 3361 3353 3344 3340 3332 3322 3323 3320 3325 3323 3317 3313 3311 3300 3287 3281 3269 3259 3253 3244 3239 3237 3231 3227 3219 3211 3207 3202 3198 3195 3183 3179 3176 3168 3162 3162 3164 3168 3169 3169 3159 3152 3137 3125 3118 3103 3091 3082 3071 3058 3061 3074 3081 3085 3093 3101 3106 3111 3114 3115 3114 3111 3104 3100 3081 3047 3007 2999 2997 3001 3004 3013 3035 3042 3043 -3.4e+38 -3.4e+38 -3.4e+38 -3.4e+38 -3.4e+38 -3.4e+38 -3.4e+38 -3.4e+38 -3.4e+38 -3.4e+38 -3.4e+38 -3.4e+38 -3.4e+38 -3.4e+38 -3.4e+38 -3.4e+38 -3.4e+38 -3.4e+38 -3.4e+38 -3.4e+38 -3.4e+38 -3.4e+38 -3.4e+38 -3.4e+38 -3.4e+38 -3.4e+38 -3.4e+38 -3.4e+38 -3.4e+38 -3.4e+38 -3.4e+38 -3.4e+38 -3.4e+38 -3.4e+38 -3.4e+38 -3.4e+38 -3.4e+38 -3.4e+38 -3.4e+38 -3.4e+38 -3.4e+38 -3.4e+38 -3.4e+38 -3.4e+38 -3.4e+38 -3.4e+38 -3.4e+38 -3.4e+38 -3.4e+38 -3.4e+38 -3.4e+38 -3.4e+38 -3.4e+38 -3.4e+38 -3.4e+38 -3.4e+38 -3.4e+38 -3.4e+38 -3.4e+38 -3.4e+38 -3.4e+38 -3.4e+38 -3.4e+38 -3.4e+38 -3.4e+38 -3.4e+38 -3.4e+38 -3.4e+38 -3.4e+38 -3.4e+38 -3.4e+38 -3.4e+38 -3.4e+38 -3.4e+38 -3.4e+38 -3.4e+38 -3.4e+38 -3.4e+38 -3.4e+38 -3.4e+38 -3.4e+38 -3.4e+38 -3.4e+38 -3.4e+38 -3.4e+38 -3.4e+38 -3.4e+38 -3.4e+38 -3.4e+38 -3.4e+38 -3.4e+38 -3.4e+38 -3.4e+38 -3.4e+38 -3.4e+38 -3.4e+38 -3.4e+38 -3.4e+38 -3.4e+38 -3.4e+38 -3.4e+38 -3.4e+38 -3.4e+38 -3.4e+38 -3.4e+38 -3.4e+38 -3.4e+38 -3.4e+38 -3.4e+38 -3.4e+38 -3.4e+38 -3.4e+38
-3.4e+38 -3.4e+38 -3.4e+38 -3.4e+38 -3.4e+38 -3.4e+38 -3.4e+38 -3.4e+38 -3.4e+38 -3.4e+38 -3.4e+38 -3.4e+38 -3.4e+38 -3.4e+38 -3.4e+38 -3.4e+38 -3.4e+38 -3.4e+38 -3.4e+38 -3.4e+38 -3.4e+38 -3.4e+38 -3.4e+38 -3.4e+38 -3.4e+38 -3.4e+38 -3.4e+38 -3.4e+38 -3.4e+38 -3.4e+38 -3.4e+38 -3.4e+38 -3.4e+38 -3.4e+38 -3.4e+38 -3.4e+38 -3.4e+38 -3.4e+38 -3.4e+38 -3.4e+38 -3.4e+38 -3.4e+38 -3.4e+38 -3.4e+38 -3.4e+38 2363 2370 2383 2395 2400 2407 2416 2417 2418 2424 2428 2436 2441 2444 2454 2458 2459 2461 2467 2470 2475 2479 2480 2482 2484 2486 2489 2492 2496 2495 2492 2480 2472 2468 2462 2460 2458 2458 2471 2480 2485 2488 2489 2492 2492 2493 2497 2502 2499 2481 2481 2488 2502 2529 2540 2553 2556 2557 2567 2582 2592 2603 2606 2612 2642 2652 2673 2696 2704 2704 2704 2709 2730 2761 2779 2794 2776 2766 2743 2726 2720 2705 2680 2678 2691 2706 2712 2719 2720 2724 2750 2794 2810 2800 2774 2761 2741 2723 2714 2752 2771 2781 2764 2764 2755 2753 2760 2738 2709 2711 2729 2754 2769 2804 2837 2849 2887 2910 2920 2929 2933 2931 2931 2949 2960 2976 2981 2977 2974 2989 3000 3029 3057 3059 3054 3051 3051 3064 3074 3087 3088 3083 3072 3066 3062 3054 3074 3079 3067 3048 3037 2996 2976 2964 2937 2952 2959 2944 2943 2959 2999 3016 3018 3019 3001 2992 2975 3000 3018 3040 3059 3071 3095 3117 3126 3126 3118 3120 3151 3166 3199 3231 3245 3276 3316 3325 3336 3350 3352 3346 3339 3335 3325 3320 3315 3307 3301 3300 3300 3304 3304 3287 3272 3265 3253 3242 3239 3230 3225 3223 3217 3214 3208 3202 3200 3197 3192 3189 3180 3170 3165 3156 3153 3153 3158 3162 3163 3162 3149 3140 3123 3102 3094 3084 3075 3071 3069 3080 3085 3094 3104 3109 3120 3134 3138 3139 3142 3142 3139 3137 3122 3109 3081 3047 3020 3010 2998 2997 2999 3004 3017 3024 -3.4e+38 -3.4e+38 -3.4e+38 -3.4e+38 -3.4e+38 -3.4e+38 -3.4e+38 -3.4e+38 -3.4e+38 -3.4e+38 -3.4e+38 -3.4e+38 -3.4e+38 -3.4e+38 -3.4e+38 -3.4e+38 -3.4e+38 -3.4e+38 -3.4e+38 -3.4e+38 -3.4e+38 -3.4e+38 -3.4e+38 -3.4e+38 -3.4e+38 -3.4e+38 -3.4e+38 -3.4e+38 -3.4e+38 -3.4e+38 -3.4e+38 -3.4e+38 -3.4e+38 -3.4e+38 -3.4e+38 -3.4e+38 -3.4e+38 -3.4e+38 -3.4e+38 -3.4e+38 -3.4e+38 -3.4e+38 -3.4e+38 -3.4e+38 -3.4e+38 -3.4e+38 -3.4e+38 -3.4e+38 -3.4e+38 -3.4e+38 -3.4e+38 -3.4e+38 -3.4e+38 -3.4e+38 -3.4e+38 -3.4e+38 -3.4e+38 -3.4e+38 -3.4e+38 -3.4e+38 -3.4e+38 -3.4e+38 -3.4e+38 -3.4e+38 -3.4e+38 -3.4e+38 -3.4e+38 -3.4e+38 -3.4e+38 -3.4e+38 -3.4e+38 -3.4e+38 -3.4e+38 -3.4e+38 -3.4e+38 -3.4e+38 -3.4e+38 -3.4e+38 -3.4e+38 -3.4e+38 -3.4e+38 -3.4e+38 -3.4e+38 -3.4e+38 -3.4e+38 -3.4e+38 -3.4e+38 -3.4e+38 -3.4e+38 -3.4e+38 -3.4e+38 -3.4e+38 -3.4e+38 -3.4e+38 -3.4e+38 -3.4e+38 -3.4e+38 -3.4e+38 -3.4e+38 -3.4e+38 -3.4e+38 -3.4e+38 -3.4e+38 -3.4e+38 -3.4e+38 -3.4e+38 -3.4e+38 -3.4e+38 -3.4e+38 -3.4e+38 -3.4e+38 -3.4e+38 -3.4e+38
-3.4e+38 -3.4e+38 -3.4e+38 -3.4e+38 -3.4e+38 -3.4e+38 -3.4e+38 -3.4e+38 -3.4e+38 -3.4e+38 -3.4e+38 -3.4e+38 -3.4e+38 -3.4e+38 -3.4e+38 -3.4e+38 -3.4e+38 -3.4e+38 -3.4e+38 -3.4e+38 -3.4e+38 -3.4e+38 -3.4e+38 -3.4e+38 -3.4e+38 -3.4e+38 -3.4e+38 -3.4e+38 -3.4e+38 -3.4e+38 -3.4e+38 -3.4e+38 -3.4e+38 -3.4e+38 -3.4e+38 -3.4e+38 -3.4e+38 -3.4e+38 -3.4e+38 -3.4e+38 -3.4e+38 -3.4e+38 -3.4e+38 -3.4e+38 -3.4e+38 2365 2370 2378 2390 2397 2402 2410 2411 2414 2422 2426 2434 2440 2443 2455 2459 2460 2467 2474 2476 2478 2478 2477 2477 2479 2479 2482 2486 2492 2495 2492 2478 2468 2464 2460 2458 2455 2459 2470 2477 2481 2483 2485 2487 2486 2487 2493 2496 2490 2477 2482 2490 2508 2532 2541 2548 2548 2548 2551 2564 2575 2590 2592 2595 2624 2637 2656 2676 2684 2690 2692 2695 2711 2744 2762 2772 2758 2748 2730 2719 2715 2693 2678 2674 2689 2703 2709 2715 2716 2719 2738 2781 2799 2800 2771 2758 2741 2715 2709 2746 2761 2764 2751 2752 2745 2741 2747 2729 2700 2711 2737 2755 2767 2798 2834 2850 2891 2911 2919 2927 2940 2941 2947 2968 2979 2996 3000 2992 2984 2994 3006 3041 3067 3069 3067 3063 3061 3073 3079 3084 3080 3077 3067 3062 3060 3049 3067 3072 3068 3052 3039 3001 2969 2959 2938 2929 2934 2923 2945 2967 3008 3019 3020 3014 2988 2978 2975 2998 3012 3032 3047 3056 3078 3096 3103 3104 3102 3121 3155 3169 3204 3239 3251 3283 3320 3328 3337 3346 3347 3341 3336 3335 3325 3315 3305 3295 3292 3292 3293 3298 3298 3279 3265 3259 3248 3237 3233 3224 3220 3218 3211 3208 3203 3199 3197 3192 3187 3185 3177 3164 3158 3149 3146 3147 3152 3155 3155 3150 3136 3129 3109 3093 3088 3079 3073 3073 3080 3090 3095 3107 3120 3126 3138 3147 3149 3150 3151 3151 3149 3146 3130 3092 3075 3046 3028 3020 3001 2994 2995 2999 3008 3015 -3.4e+38 -3.4e+38 -3.4e+38 -3.4e+38 -3.4e+38 -3.4e+38 -3.4e+38 -3.4e+38 -3.4e+38 -3.4e+38 -3.4e+38 -3.4e+38 -3.4e+38 -3.4e+38 -3.4e+38 -3.4e+38 -3.4e+38 -3.4e+38 -3.4e+38 -3.4e+38 -3.4e+38 -3.4e+38 -3.4e+38 -3.4e+38 -3.4e+38 -3.4e+38 -3.4e+38 -3.4e+38 -3.4e+38 -3.4e+38 -3.4e+38 -3.4e+38 -3.4e+38 -3.4e+38 -3.4e+38 -3.4e+38 -3.4e+38 -3.4e+38 -3.4e+38 -3.4e+38 -3.4e+38 -3.4e+38 -3.4e+38 -3.4e+38 -3.4e+38 -3.4e+38 -3.4e+38 -3.4e+38 -3.4e+38 -3.4e+38 -3.4e+38 -3.4e+38 -3.4e+38 -3.4e+38 -3.4e+38 -3.4e+38 -3.4e+38 -3.4e+38 -3.4e+38 -3.4e+38 -3.4e+38 -3.4e+38 -3.4e+38 -3.4e+38 -3.4e+38 -3.4e+38 -3.4e+38 -3.4e+38 -3.4e+38 -3.4e+38 -3.4e+38 -3.4e+38 -3.4e+38 -3.4e+38 -3.4e+38 -3.4e+38 -3.4e+38 -3.4e+38 -3.4e+38 -3.4e+38 -3.4e+38 -3.4e+38 -3.4e+38 -3.4e+38 -3.4e+38 -3.4e+38 -3.4e+38 -3.4e+38 -3.4e+38 -3.4e+38 -3.4e+38 -3.4e+38 -3.4e+38 -3.4e+38 -3.4e+38 -3.4e+38 -3.4e+38 -3.4e+38 -3.4e+38 -3.4e+38 -3.4e+38 -3.4e+38 -3.4e+38 -3.4e+38 -3.4e+38 -3.4e+38 -3.4e+38 -3.4e+38 -3.4e+38 -3.4e+38 -3.4e+38 -3.4e+38 -3.4e+38
-3.4e+38 -3.4e+38 -3.4e+38 -3.4e+38 -3.4e+38 -3.4e+38 -3.4e+38 -3.4e+38 -3.4e+38 -3.4e+38 -3.4e+38 -3.4e+38 -3.4e+38 -3.4e+38 -3.4e+38 -3.4e+38 -3.4e+38 -3.4e+38 -3.4e+38 -3.4e+38 -3.4e+38 -3.4e+38 -3.4e+38 -3.4e+38 -3.4e+38 -3.4e+38 -3.4e+38 -3.4e+38 -3.4e+38 -3.4e+38 -3.4e+38 -3.4e+38 -3.4e+38 -3.4e+38 -3.4e+38 -3.4e+38 -3.4e+38 -3.4e+38 -3.4e+38 -3.4e+38 -3.4e+38 -3.4e+38 -3.4e+38 -3.4e+38 2359 2361 2364 2371 2382 2386 2391 2395 2396 2401 2417 2421 2425 2436 2446 2456 2461 2464 2474 2482 2483 2482 2465 2459 2454 2454 2454 2473 2480 2489 2488 2483 2475 2463 2459 2456 2451 2455 2461 2469 2474 2476 2477 2477 2476 2473 2474 2481 2485 2479 2477 2487 2498 2522 2544 2544 2541 2539 2536 2536 2540 2548 2559 2561 2573 2601 2616 2634 2651 2660 2679 2683 2684 2688 2710 2728 2739 2730 2723 2712 2704 2697 2676 2662 2666 2685 2695 2701 2705 2707 2710 2720 2755 2777 2793 2767 2753 2730 2703 2709 2730 2730 2720 2718 2722 2719 2712 2734 2720 2696 2708 2735 2749 2761 2786 2822 2860 2881 2889 2889 2891 2908 2919 2944 2973 2988 3015 3024 3017 3010 3026 3039 3061 3077 3081 3088 3086 3088 3096 3093 3082 3067 3063 3059 3054 3047 3037 3053 3064 3068 3059 3049 3020 2994 2981 2946 2902 2897 2910 2957 2981 3012 3014 3011 2991 2961 2955 2967 2993 3005 3019 3030 3036 3046 3059 3068 3095 3107 3133 3161 3178 3219 3252 3263 3309 3334 3338 3338.89477539062 3340 3342 3338 3331 3327 3316 3301 3293 3279 3279 3278 3273 3273 3273 3268 3257 3252 3241 3231 3225 3218 3210 3207 3201 3198 3195 3192 3189 3183 3175 3172 3160 3149 3143 3135 3133 3134 3137 3137 3134 3124 3111 3103 3094 3084 3083 3080 3086 3091 3105 3121 3129 3142 3152 3156 3159 3163 3164 3168 3173 3173 3165 3159 3143 3098 3082 3055 3043 3038 3016 2998 2995 2990 2989 -3.4e+38 -3.4e+38 -3.4e+38 -3.4e+38 -3.4e+38 -3.4e+38 -3.4e+38 -3.4e+38 -3.4e+38 -3.4e+38 -3.4e+38 -3.4e+38 -3.4e+38 -3.4e+38 -3.4e+38 -3.4e+38 -3.4e+38 -3.4e+38 -3.4e+38 -3.4e+38 -3.4e+38 -3.4e+38 -3.4e+38 -3.4e+38 -3.4e+38 -3.4e+38 -3.4e+38 -3.4e+38 -3.4e+38 -3.4e+38 -3.4e+38 -3.4e+38 -3.4e+38 -3.4e+38 -3.4e+38 -3.4e+38 -3.4e+38 -3.4e+38 -3.4e+38 -3.4e+38 -3.4e+38 -3.4e+38 -3.4e+38 -3.4e+38 -3.4e+38 -3.4e+38 -3.4e+38 -3.4e+38 -3.4e+38 -3.4e+38 -3.4e+38 -3.4e+38 -3.4e+38 -3.4e+38 -3.4e+38 -3.4e+38 -3.4e+38 -3.4e+38 -3.4e+38 -3.4e+38 -3.4e+38 -3.4e+38 -3.4e+38 -3.4e+38 -3.4e+38 -3.4e+38 -3.4e+38 -3.4e+38 -3.4e+38 -3.4e+38 -3.4e+38 -3.4e+38 -3.4e+38 -3.4e+38 -3.4e+38 -3.4e+38 -3.4e+38 -3.4e+38 -3.4e+38 -3.4e+38 -3.4e+38 -3.4e+38 -3.4e+38 -3.4e+38 -3.4e+38 -3.4e+38 -3.4e+38 -3.4e+38 -3.4e+38 -3.4e+38 -3.4e+38 -3.4e+38 -3.4e+38 -3.4e+38 -3.4e+38 -3.4e+38 -3.4e+38 -3.4e+38 -3.4e+38 -3.4e+38 -3.4e+38 -3.4e+38 -3.4e+38 -3.4e+38 -3.4e+38 -3.4e+38 -3.4e+38 -3.4e+38 -3.4e+38 -3.4e+38 -3.4e+38 -3.4e+38 -3.4e+38 -3.4e+38
-3.4e+38 -3.4e+38 -3.4e+38 -3.4e+38 -3.4e+38 -3.4e+38 -3.4e+38 -3.4e+38 -3.4e+38 -3.4e+38 -3.4e+38 -3.4e+38 -3.4e+38 -3.4e+38 -3.4e+38 -3.4e+38 -3.4e+38 -3.4e+38 -3.4e+38 -3.4e+38 -3.4e+38 -3.4e+38 -3.4e+38 -3.4e+38 -3.4e+38 -3.4e+38 -3.4e+38 -3.4e+38 -3.4e+38 -3.4e+38 -3.4e+38 -3.4e+38 -3.4e+38 -3.4e+38 -3.4e+38 -3.4e+38 -3.4e+38 -3.4e+38 -3.4e+38 -3.4e+38 -3.4e+38 -3.4e+38 -3.4e+38 2351 2353 2355 2358 2360 2365 2370 2376 2377 2382 2396 2408 2412 2418 2429 2443 2453 2459 2461 2474 2482 2482 2474 2454 2448 2447 2446 2447 2456 2467 2481 2482 2480 2472 2460 2455 2448 2450 2459 2465 2469 2471 2471 2470 2468 2464 2458 2457 2468 2479 2473 2480 2496 2504 2527 2542 2541 2534 2525 2527 2540 2541 2543 2549 2556 2574 2604 2613 2633 2654 2664 2679 2682 2682 2681 2699 2712 2716 2710 2705 2698 2682 2672 2649 2661 2664 2674 2684 2691 2697 2700 2702 2709 2736 2756 2772 2763 2754 2720 2692 2694 2703 2692 2679 2701 2706 2705 2697 2692 2693 2693 2708 2728 2746 2759 2788 2820 2847 2852 2850 2856 2875 2901 2913 2939 2964 2979 3010 3032 3037 3044 3061 3065 3069 3080 3088 3100 3100 3099 3095 3088 3069 3049 3043 3040 3038 3032 3029 3048 3058 3055 3065 3057 3025 2995 2976 2932 2891 2886 2918 2957 2972 2989 2987 2979 2954 2946 2952 2989 3021 3033 3048 3060 3065 3078 3088 3089 3108 3119 3141 3171 3191 3230 3260 3273 3314 3342 3341 3340 3337 3335 3328 3320 3316 3304 3290 3283 3269 3253 3253 3249 3246 3251 3257 3253 3247 3237 3224 3217 3205 3197 3195 3191 3189 3187 3183 3181 3171 3162 3154 3144 3137 3134 3128 3124 3122 3123 3118 3114 3104 3100 3103 3106 3109 3111 3117 3127 3131 3143 3157 3160 3165 3169 3172 3180 3189 3195 3199 3198 3195 3183 3172 3150 3111 3101 3067 3051 3045 3026 3005 3000 2992 -3.4e+38 -3.4e+38 -3.4e+38 -3.4e+38 -3.4e+38 -3.4e+38 -3.4e+38 -3.4e+38 -3.4e+38 -3.4e+38 -3.4e+38 -3.4e+38 -3.4e+38 -3.4e+38 -3.4e+38 -3.4e+38 -3.4e+38 -3.4e+38 -3.4e+38 -3.4e+38 -3.4e+38 -3.4e+38 -3.4e+38 -3.4e+38 -3.4e+38 -3.4e+38 -3.4e+38 -3.4e+38 -3.4e+38 -3.4e+38 -3.4e+38 -3.4e+38 -3.4e+38 -3.4e+38 -3.4e+38 -3.4e+38 -3.4e+38 -3.4e+38 -3.4e+38 -3.4e+38 -3.4e+38 -3.4e+38 -3.4e+38 -3.4e+38 -3.4e+38 -3.4e+38 -3.4e+38 -3.4e+38 -3.4e+38 -3.4e+38 -3.4e+38 -3.4e+38 -3.4e+38 -3.4e+38 -3.4e+38 -3.4e+38 -3.4e+38 -3.4e+38 -3.4e+38 -3.4e+38 -3.4e+38 -3.4e+38 -3.4e+38 -3.4e+38 -3.4e+38 -3.4e+38 -3.4e+38 -3.4e+38 -3.4e+38 -3.4e+38 -3.4e+38 -3.4e+38 -3.4e+38 -3.4e+38 -3.4e+38 -3.4e+38 -3.4e+38 -3.4e+38 -3.4e+38 -3.4e+38 -3.4e+38 -3.4e+38 -3.4e+38 -3.4e+38 -3.4e+38 -3.4e+38 -3.4e+38 -3.4e+38 -3.4e+38 -3.4e+38 -3.4e+38 -3.4e+38 -3.4e+38 -3.4e+38 -3.4e+38 -3.4e+38 -3.4e+38 -3.4e+38 -3.4e+38 -3.4e+38 -3.4e+38 -3.4e+38 -3.4e+38 -3.4e+38 -3.4e+38 -3.4e+38 -3.4e+38 -3.4e+38 -3.4e+38 -3.4e+38 -3.4e+38 -3.4e+38 -3.4e+38 -3.4e+38 -3.4e+38
-3.4e+38 -3.4e+38 -3.4e+38 -3.4e+38 -3.4e+38 -3.4e+38 -3.4e+38 -3.4e+38 -3.4e+38 -3.4e+38 -3.4e+38 -3.4e+38 -3.4e+38 -3.4e+38 -3.4e+38 -3.4e+38 -3.4e+38 -3.4e+38 -3.4e+38 -3.4e+38 -3.4e+38 -3.4e+38 -3.4e+38 -3.4e+38 -3.4e+38 -3.4e+38 -3.4e+38 -3.4e+38 -3.4e+38 -3.4e+38 -3.4e+38 -3.4e+38 -3.4e+38 -3.4e+38 -3.4e+38 -3.4e+38 -3.4e+38 -3.4e+38 -3.4e+38 -3.4e+38 -3.4e+38 -3.4e+38 -3.4e+38 -3.4e+38 2347 2350 2353 2355 2358 2363 2368 2377 2383 2399 2412 2417 2419 2433 2439 2450 2457 2460 2473 2480 2479 2471 2454 2448 2441 2439 2441 2452 2461 2477 2480 2477 2469 2459 2454 2444 2450 2460 2467 2468 2469 2468 2466 2464 2460 2455 2454 2461 2472 2467 2483 2499 2507 2526 2540 2539 2529 2517 2524 2543 2544 2545 2552 2556 2574 2605 2615 2634 2654 2663 2681 2682 2681 2676 2696 2707 2711 2705 2699 2689 2674 2663 2647 2660 2662 2670 2682 2687 2693 2699 2701 2706 2730 2748 2758 2758 2751 2717 2684 2680 2683 2671 2679 2683 2686 2685 2681 2678 2679 2695 2710 2727 2746 2759 2788 2818 2834 2837 2841 2855 2881 2905 2918 2944 2967 2979 3007 3035 3044 3056 3066 3067 3066 3080 3088 3101 3102 3099 3085 3076 3056 3038 3033 3029 3027 3022 3026 3044 3048 3035 3058 3049 3013 2987 2971 2925 2886 2881 2915 2947 2959 2974 2973 2962 2937 2949 2957 2998 3029 3039 3056 3068 3074 3094 3103 3102 3113 3124 3146 3178 3198 3232 3261 3273 3314 3342 3342 3339 3331.9443359375 3330 3323 3316 3310 3296 3281 3276 3263 3252 3250 3242 3238 3240 3241 3241 3239 3232 3219 3212 3200 3192 3189 3185 3184 3183 3181 3177 3165 3158 3151 3142 3136 3134 3130 3122 3119 3117 3115 3113 3109 3110 3114 3121 3126 3129 3134 3143 3147 3158 3166 3168 3171 3178 3184 3199 3208 3212 3214 3204 3197 3184 3173 3149 3112 3102 3070 3055 3047 3028 3009 3002 2993 -3.4e+38 -3.4e+38 -3.4e+38 -3.4e+38 -3.4e+38 -3.4e+38 -3.4e+38 -3.4e+38 -3.4e+38 -3.4e+38 -3.4e+38 -3.4e+38 -3.4e+38 -3.4e+38 -3.4e+38 -3.4e+38 -3.4e+38 -3.4e+38 -3.4e+38 -3.4e+38 -3.4e+38 -3.4e+38 -3.4e+38 -3.4e+38 -3.4e+38 -3.4e+38 -3.4e+38 -3.4e+38 -3.4e+38 -3.4e+38 -3.4e+38 -3.4e+38 -3.4e+38 -3.4e+38 -3.4e+38 -3.4e+38 -3.4e+38 -3.4e+38 -3.4e+38 -3.4e+38 -3.4e+38 -3.4e+38 -3.4e+38 -3.4e+38 -3.4e+38 -3.4e+38 -3.4e+38 -3.4e+38 -3.4e+38 -3.4e+38 -3.4e+38 -3.4e+38 -3.4e+38 -3.4e+38 -3.4e+38 -3.4e+38 -3.4e+38 -3.4e+38 -3.4e+38 -3.4e+38 -3.4e+38 -3.4e+38 -3.4e+38 -3.4e+38 -3.4e+38 -3.4e+38 -3.4e+38 -3.4e+38 -3.4e+38 -3.4e+38 -3.4e+38 -3.4e+38 -3.4e+38 -3.4e+38 -3.4e+38 -3.4e+38 -3.4e+38 -3.4e+38 -3.4e+38 -3.4e+38 -3.4e+38 -3.4e+38 -3.4e+38 -3.4e+38 -3.4e+38 -3.4e+38 -3.4e+38 -3.4e+38 -3.4e+38 -3.4e+38 -3.4e+38 -3.4e+38 -3.4e+38 -3.4e+38 -3.4e+38 -3.4e+38 -3.4e+38 -3.4e+38 -3.4e+38 -3.4e+38 -3.4e+38 -3.4e+38 -3.4e+38 -3.4e+38 -3.4e+38 -3.4e+38 -3.4e+38 -3.4e+38 -3.4e+38 -3.4e+38 -3.4e+38 -3.4e+38 -3.4e+38 -3.4e+38 -3.4e+38
-3.4e+38 -3.4e+38 -3.4e+38 -3.4e+38 -3.4e+38 -3.4e+38 -3.4e+38 -3.4e+38 -3.4e+38 -3.4e+38 -3.4e+38 -3.4e+38 -3.4e+38 -3.4e+38 -3.4e+38 -3.4e+38 -3.4e+38 -3.4e+38 -3.4e+38 -3.4e+38 -3.4e+38 -3.4e+38 -3.4e+38 -3.4e+38 -3.4e+38 -3.4e+38 -3.4e+38 -3.4e+38 -3.4e+38 -3.4e+38 -3.4e+38 -3.4e+38 -3.4e+38 -3.4e+38 -3.4e+38 -3.4e+38 -3.4e+38 -3.4e+38 -3.4e+38 -3.4e+38 -3.4e+38 -3.4e+38 -3.4e+38 -3.4e+38 -3.4e+38 2341 2343 2347 2355 2360 2368 2379 2385 2400 2419 2423 2426 2430 2434 2444 2454 2459 2468 2476 2475 2468 2456 2450 2439 2432 2426 2443 2453 2464 2470 2469 2463 2455 2449 2440 2453 2464 2466 2462 2462 2463 2462 2458 2447 2445 2447 2454 2460 2463 2486 2497 2504 2520 2529 2528 2513 2509 2519 2540 2542 2546 2559 2564 2575 2613 2623 2634 2648 2660 2677 2674 2670 2665 2687 2691 2688 2681 2679 2671 2663 2654 2639 2645 2648 2660 2672 2675 2687 2699 2700 2702 2721 2730 2724 2731 2733 2711 2657 2667 2663 2653 2649 2654 2656 2670 2676 2678 2698 2716 2724 2736 2743 2750 2765 2792 2797 2814 2847 2861 2881 2903 2916 2941 2964 2980 3009 3039 3050 3061 3062 3059 3051 3065 3073 3085 3087 3080 3059 3049 3034 3026 3023 3013 3009 3009 3024 3029 3021 2998 3025 3021 2985 2961 2957 2930 2887 2871 2891 2910 2922 2947 2943 2925 2937 2950 2957 3000 3023 3034 3056 3071 3081 3108 3116 3119 3129 3140 3162 3196 3212 3234 3259 3271 3300 3322 3327 3328 3324 3320.77783203125 3315 3306 3297 3277 3267 3264 3259 3258 3259 3258 3230 3227 3223 3222 3220 3215 3205 3201 3195 3187 3182 3179 3178 3176 3170 3167 3162 3159 3160 3160 3158 3158 3148 3138 3133 3130 3132 3132 3136 3141 3144 3150 3156 3159 3164 3165 3166 3169 3174 3178 3194 3208 3217 3222 3222 3222 3217 3199 3189 3170 3160 3137 3109 3098 3067 3054 3047 3030 3011 3005 -3.4e+38 -3.4e+38 -3.4e+38 -3.4e+38 -3.4e+38 -3.4e+38 -3.4e+38 -3.4e+38 -3.4e+38 -3.4e+38 -3.4e+38 -3.4e+38 -3.4e+38 -3.4e+38 -3.4e+38 -3.4e+38 -3.4e+38 -3.4e+38 -3.4e+38 -3.4e+38 -3.4e+38 -3.4e+38 -3.4e+38 -3.4e+38 -3.4e+38 -3.4e+38 -3.4e+38 -3.4e+38 -3.4e+38 -3.4e+38 -3.4e+38 -3.4e+38 -3.4e+38 -3.4e+38 -3.4e+38 -3.4e+38 -3.4e+38 -3.4e+38 -3.4e+38 -3.4e+38 -3.4e+38 -3.4e+38 -3.4e+38 -3.4e+38 -3.4e+38 -3.4e+38 -3.4e+38 -3.4e+38 -3.4e+38 -3.4e+38 -3.4e+38 -3.4e+38 -3.4e+38 -3.4e+38 -3.4e+38 -3.4e+38 -3.4e+38 -3.4e+38 -3.4e+38 -3.4e+38 -3.4e+38 -3.4e+38 -3.4e+38 -3.4e+38 -3.4e+38 -3.4e+38 -3.4e+38 -3.4e+38 -3.4e+38 -3.4e+38 -3.4e+38 -3.4e+38 -3.4e+38 -3.4e+38 -3.4e+38 -3.4e+38 -3.4e+38 -3.4e+38 -3.4e+38 -3.4e+38 -3.4e+38 -3.4e+38 -3.4e+38 -3.4e+38 -3.4e+38 -3.4e+38 -3.4e+38 -3.4e+38 -3.4e+38 -3.4e+38 -3.4e+38 -3.4e+38 -3.4e+38 -3.4e+38 -3.4e+38 -3.4e+38 -3.4e+38 -3.4e+38 -3.4e+38 -3.4e+38 -3.4e+38 -3.4e+38 -3.4e+38 -3.4e+38 -3.4e+38 -3.4e+38 -3.4e+38 -3.4e+38 -3.4e+38 -3.4e+38 -3.4e+38 -3.4e+38 -3.4e+38 -3.4e+38 -3.4e+38 -3.4e+38
-3.4e+38 -3.4e+38 -3.4e+38 -3.4e+38 -3.4e+38 -3.4e+38 -3.4e+38 -3.4e+38 -3.4e+38 -3.4e+38 -3.4e+38 -3.4e+38 -3.4e+38 -3.4e+38 -3.4e+38 -3.4e+38 -3.4e+38 -3.4e+38 -3.4e+38 -3.4e+38 -3.4e+38 -3.4e+38 -3.4e+38 -3.4e+38 -3.4e+38 -3.4e+38 -3.4e+38 -3.4e+38 -3.4e+38 -3.4e+38 -3.4e+38 -3.4e+38 -3.4e+38 -3.4e+38 -3.4e+38 -3.4e+38 -3.4e+38 -3.4e+38 -3.4e+38 -3.4e+38 -3.4e+38 -3.4e+38 -3.4e+38 -3.4e+38 -3.4e+38 -3.4e+38 -3.4e+38 2344 2359 2361 2371 2385 2395 2404 2420 2425 2429 2438 2440 2450 2454 2461 2466 2467 2466 2463 2455 2447 2434 2428 2419 2437 2446 2455 2462 2463 2462 2456 2447 2437 2455 2464 2461 2456 2451 2457 2456 2449 2438 2451 2460 2464 2460 2461 2477 2482 2489 2499 2501 2500 2491 2504 2514 2526 2532 2539 2557 2563 2587 2610 2620 2631 2644 2657 2669 2662 2657 2660 2671 2671 2667 2664 2663 2660 2652 2642 2621 2628 2632 2642 2645 2659 2686 2694 2693 2692 2705 2704 2690 2698 2719 2708 2654 2645 2636 2638 2663 2687 2695 2708 2712 2712 2734 2757 2756 2775 2782 2784 2781 2781 2789 2818 2856 2873 2896 2920 2936 2956 2982 2994 3019 3041 3052 3063 3059 3049 3030 3043 3051 3060 3058 3052 3038 3031 3021 3015 3012 2998 2998 3009 3025 3008 2991 2965 2992 2997 2975 2941 2928 2910 2877 2863 2869 2886 2890 2909 2909 2916 2948 2974 2985 3000 3019 3026 3051 3070 3082 3108 3119 3125 3145 3160 3175 3204 3218 3245 3261 3264 3283 3296 3304 3311 3313 3312 3301.73681640625 3293 3284 3272 3266 3263 3259 3260 3260 3258 3236 3229 3223 3218 3215 3207 3198 3197 3194 3190 3190 3187 3185 3180 3179 3179 3177 3183 3185 3188 3185 3181 3170 3161 3160 3160 3167 3169 3173 3179 3179 3183 3185 3183 3177 3170 3168 3166 3172 3179 3194 3200 3202 3206 3201 3200 3190 3175 3166 3148 3140 3118 3100 3085 3059 3047 3042 3025 3008 -3.4e+38 -3.4e+38 -3.4e+38 -3.4e+38 -3.4e+38 -3.4e+38 -3.4e+38 -3.4e+38 -3.4e+38 -3.4e+38 -3.4e+38 -3.4e+38 -3.4e+38 -3.4e+38 -3.4e+38 -3.4e+38 -3.4e+38 -3.4e+38 -3.4e+38 -3.4e+38 -3.4e+38 -3.4e+38 -3.4e+38 -3.4e+38 -3.4e+38 -3.4e+38 -3.4e+38 -3.4e+38 -3.4e+38 -3.4e+38 -3.4e+38 -3.4e+38 -3.4e+38 -3.4e+38 -3.4e+38 -3.4e+38 -3.4e+38 -3.4e+38 -3.4e+38 -3.4e+38 -3.4e+38 -3.4e+38 -3.4e+38 -3.4e+38 -3.4e+38 -3.4e+38 -3.4e+38 -3.4e+38 -3.4e+38 -3.4e+38 -3.4e+38 -3.4e+38 -3.4e+38 -3.4e+38 -3.4e+38 -3.4e+38 -3.4e+38 -3.4e+38 -3.4e+38 -3.4e+38 -3.4e+38 -3.4e+38 -3.4e+38 -3.4e+38 -3.4e+38 -3.4e+38 -3.4e+38 -3.4e+38 -3.4e+38 -3.4e+38 -3.4e+38 -3.4e+38 -3.4e+38 -3.4e+38 -3.4e+38 -3.4e+38 -3.4e+38 -3.4e+38 -3.4e+38 -3.4e+38 -3.4e+38 -3.4e+38 -3.4e+38 -3.4e+38 -3.4e+38 -3.4e+38 -3.4e+38 -3.4e+38 -3.4e+38 -3.4e+38 -3.4e+38 -3.4e+38 -3.4e+38 -3.4e+38 -3.4e+38 -3.4e+38 -3.4e+38 -3.4e+38 -3.4e+38 -3.4e+38 -3.4e+38 -3.4e+38 -3.4e+38 -3.4e+38 -3.4e+38 -3.4e+38 -3.4e+38 -3.4e+38 -3.4e+38 -3.4e+38 -3.4e+38 -3.4e+38 -3.4e+38 -3.4e+38 -3.4e+38 -3.4e+38 -3.4e+38
-3.4e+38 -3.4e+38 -3.4e+38 -3.4e+38 -3.4e+38 -3.4e+38 -3.4e+38 -3.4e+38 -3.4e+38 -3.4e+38 -3.4e+38 -3.4e+38 -3.4e+38 -3.4e+38 -3.4e+38 -3.4e+38 -3.4e+38 -3.4e+38 -3.4e+38 -3.4e+38 -3.4e+38 -3.4e+38 -3.4e+38 -3.4e+38 -3.4e+38 -3.4e+38 -3.4e+38 -3.4e+38 -3.4e+38 -3.4e+38 -3.4e+38 -3.4e+38 -3.4e+38 -3.4e+38 -3.4e+38 -3.4e+38 -3.4e+38 -3.4e+38 -3.4e+38 -3.4e+38 -3.4e+38 -3.4e+38 -3.4e+38 -3.4e+38 -3.4e+38 -3.4e+38 -3.4e+38 -3.4e+38 2355 2359 2376 2391 2399 2407 2420 2424 2429 2440 2443 2450 2460 2462 2464 2463 2463 2461 2453 2446 2434 2428 2417 2431 2440 2449 2461 2463 2463 2456 2446 2436 2450 2459 2458 2451 2445 2448 2446 2442 2436 2457 2465 2465 2461 2462 2469 2473 2478 2486 2486 2488 2489 2503 2510 2520 2526 2534 2550 2557 2584 2601 2613 2627 2641 2653 2665 2659 2654 2660 2665 2665 2663 2661 2660 2658 2645 2635 2617 2621 2620 2628 2641 2658 2683 2689 2687 2681 2692 2691 2690 2698 2701 2699 2652 2638 2631 2643 2677 2707 2717 2726 2733 2735 2745 2773 2777 2793 2802 2805 2800 2792 2800 2815 2847 2861 2886 2918 2934 2958 2989 3003 3023 3045 3055 3064 3053 3041 3020 3032 3038 3046 3044 3040 3030 3024 3012 3005 3003 2991 2997 3011 3025 2999 2978 2950 2972 2980 2969 2940 2921 2891 2864 2857 2882 2905 2903 2898 2909 2918 2954 2987 3002 3009 3030 3041 3057 3069 3082 3106 3120 3128 3145 3160 3188 3210 3221 3246 3255 3263 3272 3282 3291 3301 3305 3304 3295.9443359375 3287 3282 3276 3271 3267 3261 3259 3258 3253 3234 3231 3229 3222 3219 3212 3206 3205 3201 3199 3199 3199 3196 3189 3187 3187 3185 3192 3194 3196 3193 3190 3184 3179 3178 3178 3183 3185 3187 3193 3194 3195 3192 3189 3178 3169 3165 3162 3164 3169 3179 3186 3187 3190 3187 3186 3177 3164 3156 3139 3129 3107 3091 3076 3053 3043 3039 3023 3005 -3.4e+38 -3.4e+38 -3.4e+38 -3.4e+38 -3.4e+38 -3.4e+38 -3.4e+38 -3.4e+38 -3.4e+38 -3.4e+38 -3.4e+38 -3.4e+38 -3.4e+38 -3.4e+38 -3.4e+38 -3.4e+38 -3.4e+38 -3.4e+38 -3.4e+38 -3.4e+38 -3.4e+38 -3.4e+38 -3.4e+38 -3.4e+38 -3.4e+38 -3.4e+38 -3.4e+38 -3.4e+38 -3.4e+38 -3.4e+38 -3.4e+38 -3.4e+38 -3.4e+38 -3.4e+38 -3.4e+38 -3.4e+38 -3.4e+38 -3.4e+38 -3.4e+38 -3.4e+38 -3.4e+38 -3.4e+38 -3.4e+38 -3.4e+38 -3.4e+38 -3.4e+38 -3.4e+38 -3.4e+38 -3.4e+38 -3.4e+38 -3.4e+38 -3.4e+38 -3.4e+38 -3.4e+38 -3.4e+38 -3.4e+38 -3.4e+38 -3.4e+38 -3.4e+38 -3.4e+38 -3.4e+38 -3.4e+38 -3.4e+38 -3.4e+38 -3.4e+38 -3.4e+38 -3.4e+38 -3.4e+38 -3.4e+38 -3.4e+38 -3.4e+38 -3.4e+38 -3.4e+38 -3.4e+38 -3.4e+38 -3.4e+38 -3.4e+38 -3.4e+38 -3.4e+38 -3.4e+38 -3.4e+38 -3.4e+38 -3.4e+38 -3.4e+38 -3.4e+38 -3.4e+38 -3.4e+38 -3.4e+38 -3.4e+38 -3.4e+38 -3.4e+38 -3.4e+38 -3.4e+38 -3.4e+38 -3.4e+38 -3.4e+38 -3.4e+38 -3.4e+38 -3.4e+38 -3.4e+38 -3.4e+38 -3.4e+38 -3.4e+38 -3.4e+38 -3.4e+38 -3.4e+38 -3.4e+38 -3.4e+38 -3.4e+38 -3.4e+38 -3.4e+38 -3.4e+38 -3.4e+38 -3.4e+38 -3.4e+38 -3.4e+38 -3.4e+38
